# .PCD v0.7 - Point Cloud Data file format
VERSION 0.7
FIELDS x y z
SIZE 4 4 4
TYPE F F F
COUNT 1 1 1
WIDTH 1392
HEIGHT 1
VIEWPOINT 0 0 0 1 0 0 0
POINTS 1392
DATA ascii
-0.59187859 -0.33750001 0.34709334
-1.0059603 -0.14079997 1.3725395
-0.71781427 -0.12389997 1.2296333
-0.52788538 -0.11480001 1.1012228
-2.3525743 -0.4535 1.8713326
-0.75670511 -0.063899994 0.4827871
-1.2732468 -0.192 0.96227622
-2.2752876 -0.34400001 2.8095927
-0.87938821 -0.0061999857 -0.35760927
-1.2649735 -0.016099989 -0.32515305
-0.62101138 -0.03459999 -0.21944064
-1.8222444 -0.0011999905 -0.41205645
-1.3878688 -0.025399983 -0.28711075
-1.0140214 -0.016299993 -0.31589001
0.6302141 0.060800016 -0.96748894
-0.68938857 -0.076399982 1.672565
-0.93956298 -0.028699994 2.1733379
0.21323316 0.10070002 0.23636042
0.1505128 0.066200018 0.72193062
0.0058387965 0.062999994 0.85783654
-1.7182291 -0.17429999 1.7642059
-1.8362451 -0.17719999 1.8724639
-0.10644974 -0.25839999 1.9896317
-1.9930109 -0.013899982 2.7668836
-0.48468119 -0.34489998 -0.12723392
-2.3334119 -0.24609998 2.8306644
-0.83710319 0.33610001 2.074131
-0.92153174 -0.41249999 0.627249
-0.95328087 -0.39259997 0.66578639
-2.6383164 -0.41760001 2.1846516
-2.1155522 -0.046200007 2.4061882
0.97506994 -0.058600008 -1.2365429
-2.1663933 -0.075199991 1.1159304
-2.2738736 -0.072299987 1.2320374
-1.1041774 -0.14720002 2.3264973
-0.37776661 -0.127 0.65652323
0.0077479631 -0.099999994 0.52655703
-0.31398562 -0.12439999 0.60037899
-0.26349819 -0.10870001 0.80487424
1.2387501 -0.0067999959 -0.59908634
-0.011768192 -0.47419998 0.60235888
-0.54535097 -0.29910001 -0.12072852
-2.1340077 -0.074200004 2.9720857
-2.1654034 -0.072299987 1.705092
-1.6783482 -0.022199988 0.9459421
-2.4661357 -0.092999995 1.6592007
-1.9186231 -0.25609997 -0.43249184
1.2723378 0.19510001 -0.8582409
0.2011417 -0.056899995 1.6708679
-1.4689032 -0.39970002 1.1848028
-1.5320477 -0.20070001 0.79596472
-1.3507457 -0.21709999 2.419199
-1.5706558 -0.4718 0.98193389
-2.4382758 -0.20079997 1.5483263
1.0547609 0.48460001 -0.9283151
-1.4472656 -0.064700007 2.2354219
-1.0481039 -0.47349998 2.2707067
-0.23160768 -0.1241 0.24816909
-0.60934412 -0.1388 0.64457315
-0.16033131 -0.11899999 0.14705282
2.1559381 -0.024699986 -2.3041329
1.2367702 0.3272 -1.2040868
-1.699632 -0.055700004 2.1663377
-0.62136489 -0.433 1.4468565
-1.1618067 0.039900005 0.57096338
-1.4287394 0.032800019 0.91299087
-1.1247543 0.04460001 0.35048744
-1.3150368 0.036900014 0.71415246
-1.6685902 0.022500008 2.3330028
0.15984671 -0.056099981 3.0560901
1.9940815 0.1675 -1.6382504
-2.6529534 -0.14210001 1.64223
-1.6982887 0.078000009 0.6939292
-1.762706 0.048999995 0.78974211
-0.56465495 -0.17200002 0.0093083978
-0.74305797 -0.18219998 0.19775237
-1.2250221 -0.26009998 0.5521543
0.47747898 0.096700013 0.24703771
0.46411467 0.10840002 0.14882058
-1.7514629 -0.14210001 0.71344531
-0.024637535 -0.015799999 0.95138675
-2.5516958 -0.14769998 2.4025111
-2.6615798 -0.15900001 2.5333259
-3.222811 0.029200017 -0.47095853
-1.4893385 -0.39220002 0.96185189
1.9018042 -0.047800004 -1.4597058
-1.0737011 0.014100015 1.9341238
-0.70621765 -0.19890001 1.9524376
-1.2634885 -0.31560001 2.3153956
-0.7142787 -0.20659998 1.7053747
-1.1673927 -0.018399984 2.1249719
-0.67828703 -0.48120001 1.4479172
1.7007029 -0.21799996 -1.5693076
-1.8235172 -0.17309996 0.18997413
0.056538269 -0.1514 3.1424277
-0.83095133 -0.20769998 0.39878279
1.1232796 0.49700001 -0.97873181
-0.93885583 -0.1162 0.14337587
-1.3156731 0.056300014 1.3871059
1.625396 0.2297 -1.4142389
1.4705396 -0.07949999 -1.7165978
-1.3632612 1.2862 2.5636609
-0.4066166 -0.30130002 0.17201369
-2.8078098 -0.1564 1.1677616
0.6184054 0.22050001 -0.23047155
-1.7677264 -0.20619997 0.14040601
-2.0706511 -0.1855 1.0240066
-2.3856671 1.1332999 1.391773
-2.4756815 1.223 1.4798076
-2.3534229 -0.13710001 1.2291381
-3.1408572 -0.14509997 1.1830349
-1.2750144 -0.0027999878 0.29922223
-0.72071338 -0.15309998 0.49487865
-2.8777428 -0.00079998374 -0.81701654
-0.49486351 -0.16819999 1.3704181
-1.4066777 -0.35989997 1.0310777
-1.3527255 -0.32799998 1.0056926
-2.1221991 -0.46299997 1.6077232
-1.6144257 -0.13799998 2.8144009
-0.83158773 -0.029799998 -0.04322964
-0.46445793 -0.2024 0.21316729
-1.8381543 -0.39009997 1.5720143
0.92967373 0.3644 -0.69659626
-1.0593469 -0.15199998 0.59493423
-0.28669131 -0.1424 1.2257442
-0.091317683 -0.091600001 0.7807619
0.30551064 -0.076299995 0.41914749
0.46609455 -0.10639998 -0.0013688803
0.25283116 -0.12939999 0.36972073
-0.16832161 -0.17469999 0.78988361
0.32799661 -0.12130001 0.31491995
0.44127518 -0.10910001 0.24859336
-2.4977434 -0.017100006 0.14733571
-2.1919906 -0.21739998 1.1461947
-0.81574857 0.013999999 -0.16782185
-0.83894163 0.027700007 -0.061048687
2.4450033 0.013500005 -2.3915312
-1.393667 -0.040800005 2.40838
1.0949247 0.27450001 -1.2581098
-0.79220188 -0.46650001 1.6227846
-1.310582 -0.18139997 2.064373
-2.3376544 -0.16089997 1.739033
0.084186211 -0.14750001 0.64004767
0.21415244 -0.13350001 0.44672465
0.62349659 -0.08949998 0.073867232
0.072872505 -0.14869997 0.51121283
-2.5630801 -0.1216 1.5994499
-1.0432956 -0.16260001 1.7927024
-2.4976022 -0.22370002 0.11410159
-1.1423612 -0.13369998 2.9184871
-0.98015088 -0.046499997 0.66649348
0.27963054 -0.2484 0.50569737
0.41680926 -0.19240001 0.36470029
-1.4273959 -0.36480001 1.8676558
-0.4481945 -0.36679998 -0.1549525
-1.7469375 -0.074000001 2.7248812
-0.71272314 0.11070001 0.9661653
-2.1142795 -0.11450002 -0.24249232
-3.1335738 0.017199993 -0.31949621
-0.99867707 0.038500011 -0.2014094
-2.3415437 0.024900019 -0.29297972
-1.8863082 0.029900014 -0.21986479
-2.9536152 0.019600004 -0.24687642
-0.8771255 -0.21059999 1.7048798
-0.88596427 0.0071000159 1.7100415
0.45082116 -0.019499987 2.0317044
0.49282336 -0.013899982 2.5288005
0.03277953 -0.015799999 0.90641481
-1.3786764 -0.21870002 0.71245539
-0.23585032 -0.066899985 0.7060914
-1.6348611 -0.053200006 1.3810248
-1.0113344 0.7687 2.219512
-1.495561 -0.39339998 1.9653778
-2.0425789 -0.37999997 2.822674
-1.1524022 -0.46809998 0.67611009
-1.6045263 -0.19719997 0.66847336
-2.1215627 -0.3867 1.3368309
-0.89565164 0.0049000084 1.8820808
-0.78583801 -0.0069999993 1.9504578
-1.722896 -0.086400002 2.2918491
-0.81193024 0.01790002 1.8216939
-1.6073546 -0.15729997 0.77567077
1.4322852 0.2802 -1.1239715
0.60878879 0.073300004 0.19478253
-0.43355739 -0.49499997 1.1389823
-1.4312851 -0.19060001 1.808188
-0.79934371 -0.10660002 2.0639484
0.63290107 0.32010001 -0.76384205
2.2043045 -0.21909997 -2.2355435
-0.85598296 0.12290001 2.0976775
-0.89105541 0.29339999 2.1289318
-1.0071623 0.1761 2.2477255
-1.3078241 1.0027 2.5300026
-1.0242745 0.55129999 2.2564938
-1.5521296 0.021200001 0.60193461
-1.6231232 0.014499992 0.59938902
-1.4983188 0.0011000037 0.32651657
0.21563737 -0.18630001 0.35487151
1.2094052 0.3732 -1.3464274
0.56827152 -0.12350002 -0.61633968
0.97761554 0.13159999 -1.2072687
-2.9615347 0.014300019 -0.75330621
-0.47563022 0.10950002 0.82495606
0.5172891 0.00049999356 1.2782116
0.5538466 0.00060001016 2.3716106
0.41687995 -0.017699987 0.75028557
0.43710321 -0.014099985 0.87402934
0.46248835 -0.016099989 1.9138298
0.16585703 -0.36429998 0.71691012
-2.1813838 -0.4603 1.63028
0.51106662 -0.12420002 2.0072386
-0.43574941 -0.43209997 0.92027408
1.1572914 -0.17399999 -1.117537
-0.14484568 -0.086099982 0.90952605
-0.097610936 -0.082800001 0.87883765
-0.16125055 -0.090599984 0.88364595
-1.0679029 0.28570002 2.3047891
-1.3706859 1.1396 2.5897529
-1.4539832 1.0893 2.6669691
-1.217456 -0.4348 2.1111126
1.7198654 0.32230002 -1.6229768
1.4710348 0.46250001 -1.1662567
0.35055333 -0.2333 2.1410232
-1.1870503 -0.28489998 0.44658321
-1.8187089 -0.40699998 2.3235981
1.1305628 -0.14489999 -0.88235325
-2.2339928 -0.011199981 1.2672515
-0.35033089 0.18630001 0.58340836
-2.611022 -0.066799998 -0.40491474
-0.66167009 -0.19390002 1.5179915
0.91383451 -0.049699992 -1.2133498
0.96814042 -0.0065000057 -1.3144662
-1.6395988 0.031199992 2.3684995
1.6231333 -0.14000002 -1.2896466
-1.4089406 0.044800013 1.5710244
-1.1391792 -0.072099984 2.1565795
-0.094075412 -0.058200002 0.74590153
-0.093085468 -0.074499995 0.56898344
0.15928094 -0.48450002 0.46737218
-0.46014458 -0.15339997 0.070826724
-0.30740952 -0.12759998 -0.16944817
-0.14222936 -0.12189999 -0.22177404
-1.0932173 -0.16239998 3.0094917
-0.15198746 -0.2326 0.27122077
-2.8433771 -0.31530002 2.1259618
-2.589031 -0.16349998 0.27072579
-0.90053064 0.54040003 2.0981019
-0.94203782 0.61140001 2.1401746
-2.4951272 1.1706001 1.4998186
-2.5248258 1.0835 1.5271132
-2.3502409 0.70880002 1.3632765
0.83923489 -0.10609999 -1.0140166
-0.85195249 -0.43389997 1.7630038
-2.2586708 0.031700015 1.7379723
0.036032245 -0.26360002 1.7990663
-2.859853 0.020099998 -0.28506023
-2.1005616 0.027400017 -0.2673825
-1.3681405 0.034500003 -0.25225037
-3.1988399 0.016400009 -0.34276003
-2.7433217 0.021400005 -0.26229131
-1.6347904 -0.069499999 2.0798583
-1.0184761 -0.4686 0.49042386
-0.16881658 -0.060299993 -0.42032969
-1.8804393 -0.019600004 0.83181489
1.0406895 0.44910002 -1.1342955
-1.5372096 -0.17029998 2.6828792
1.1231381 -0.058499992 -0.63861346
-0.3323704 -0.11639997 0.43732014
-3.2479837 -0.13789997 1.324527
-3.0302656 -0.13549998 1.3101728
-3.505512 -0.14110002 1.3074152
-3.3849504 -0.13960001 1.317668
-0.44246691 -0.37569997 0.57895362
1.2781359 0.38230002 -0.95299321
-0.68825722 0.045900017 -0.1521948
1.3721105 0.41260001 -1.4740601
-2.6520343 -0.1137 -0.36390257
-2.3496046 0.88779998 1.3248804
-2.0318308 0.0031999946 1.0403407
-0.72000629 -0.090999991 0.0088134408
-1.9862225 -0.077199996 1.166418
-1.5261788 -0.13399997 2.7209213
2.1850712 -0.1582 -1.8317854
-1.2065666 -0.076000005 0.24463356
-2.1794746 -0.39669999 2.9218104
-0.28782266 -0.29679999 1.0327041
-1.5294315 0.01700002 0.78585309
-0.30062133 -0.12460002 0.72928452
-1.6140015 0.0069999993 0.99345958
-2.2152545 -0.29050002 1.1712971
-2.3189871 -0.0097999871 2.3112237
1.0081626 0.22660001 -0.61527902
2.4844601 -0.089100003 -2.1707723
-2.0728428 -0.4427 1.4039352
-0.39657569 -0.1636 1.3407197
-0.29729789 -0.29260001 0.3780646
0.33520913 -0.3529 0.477696
-0.93164331 -0.26799998 1.4682112
0.23600204 -0.3827 -0.15509394
1.5931519 -0.19549999 -1.405895
0.00046475232 -0.013399988 1.1098495
-0.25925556 -0.15599999 0.75792235
0.020617306 -0.15409997 0.54282045
0.83817428 0.32859999 -0.89105064
-0.28138798 -0.20479998 0.40062129
0.35564452 -0.082100004 0.40663171
-2.0902379 0.0022000074 1.3524578
-0.36786717 -0.46510002 1.1292949
-2.0996423 -0.32329997 2.6373415
0.72963327 0.1151 -0.1240519
0.93038088 0.15120001 -1.1559329
-2.1526754 -0.15330002 2.0090063
-2.558696 -0.2624 2.3092439
-1.8865912 -0.22679999 -0.49690932
-0.82529455 -0.091199994 1.5827625
-2.3170068 -0.010699987 1.3321638
-1.4872879 -0.03489998 2.7373264
-1.4148802 -0.0049999952 2.6660497
-0.89013618 0.1058 0.84065384
-2.524543 -0.27430001 0.11601084
-0.60460651 -0.12810001 -0.037431329
1.3179462 -0.18619999 -1.1786311
-1.5343812 -0.013500005 1.8571198
0.7689485 -0.098100007 -0.35895282
-0.6416589 -0.3497 0.26054344
0.63063842 0 3.1946831
-1.3081777 -0.14409998 3.6675251
-1.3515942 -0.14650002 3.7160327
-1.4194057 -0.14070001 3.3676412
-1.914239 -0.34910002 1.6862829
-0.11408652 -0.11740002 -0.47322124
0.024294257 -0.46799996 0.62498629
-0.046769962 -0.47679999 0.61643028
-1.3789592 -0.17459998 2.9479027
-1.3574631 -0.17270002 3.0853643
-2.0012839 -0.23899999 2.68097
-1.34919 0.023200005 2.1694489
-1.1829492 0.0069999993 0.54614383
-1.3055614 -0.21229997 1.998117
-1.0111222 -0.30160001 0.36512455
-0.4364565 -0.30149999 0.53391093
-0.34856313 -0.29019997 0.42932984
-1.6083446 -0.211 0.90705115
-0.32784492 -0.22800002 0.74576008
-0.91014737 -0.19179997 0.42720851
-1.0827521 -0.2071 0.56884199
-0.070528761 -0.12259999 -0.21512729
-0.84530562 -0.1859 0.37184206
-1.1936971 -0.30880001 2.4011676
0.30862194 -0.092299998 -0.57787305
-2.2931068 -0.20360002 1.6298556
0.32184482 -0.2053 2.1697316
0.87968129 -0.028400004 -0.18854001
1.7801111 0.23400001 -1.6572008
-1.3026624 -0.11289999 0.32291031
-0.35563421 0.024599999 1.2821007
1.8472862 -0.0020999908 -1.3885002
0.28359032 -0.21119997 0.13107219
-2.2519531 -0.3946 1.9692669
-1.8742875 0.20480001 0.90089935
-1.9065316 0.050000012 0.93667895
-2.2155373 0.66649997 1.2319667
-2.2392251 0.68309999 1.255372
-2.3010263 0.74090004 1.3159003
-1.8557613 0.040600002 0.88605011
-2.6086886 0.54579997 1.601218
-2.5650599 1.2273 1.5513668
-1.2987733 0.020400017 0.37035716
1.9252801 0.11070001 -1.5152845
-1.0292242 -0.037900001 0.089211434
-2.694319 -0.01789999 -0.36149824
-0.76321054 -0.040199995 0.067008331
-1.6680951 -0.031100005 0.0095205903
-0.99867707 -0.038800001 0.15483099
-2.0945511 -0.024299979 -0.28583795
-1.1492909 -0.035699993 -0.027319729
-1.5543923 -0.030799985 -0.14109319
-1.5886869 -0.030999988 -0.078089952
-1.7931116 -0.028899997 -0.099373937
-1.4008795 -0.032499999 -0.11075833
-1.4619029 -0.033699989 0.079241276
-0.94620973 -0.038499981 0.069553912
-1.8238707 -0.029100001 -0.046977282
-1.4175673 -0.034199983 0.088080049
-1.9813434 -0.02759999 -0.046057999
-1.7672315 -0.069999993 0.7067278
2.1681006 0.037100017 -2.290415
-2.6649034 -0.13579997 2.3703377
-1.490187 -0.15019998 1.9519429
-1.7286942 -0.15949997 2.1601858
-0.90088427 -0.11480001 1.6543922
-0.96339244 -0.12689999 1.5399823
-0.99401015 -0.1212 1.6868484
-0.50136894 -0.021099985 -0.37670118
-0.24963892 -0.28199998 0.67844355
-0.68613589 -0.058499992 0.37290275
-0.75232106 -0.051599979 0.3350018
-1.1716355 -0.13750002 0.27376634
-0.92881495 0.16970001 2.1695197
-0.74270445 0.047700018 1.9860961
-0.9607054 0.076000005 2.2033899
-1.1678171 0.82280004 2.3940969
-1.2208501 0.78200001 2.4479783
-2.0390432 -0.12990001 2.4210374
1.6833787 0.24780001 -1.3766208
0.51212728 -0.14699998 1.3214157
-0.17829184 -0.082899988 1.0595033
-0.53651208 -0.13530001 1.783015
-0.86383182 -0.0036999881 1.4548469
-0.47053903 -0.47260001 1.0444419
-2.299895 -0.35019997 1.4833431
-2.5337353 -0.41389999 1.5087283
-2.1176736 -0.42039999 1.3903587
-1.0630945 -0.46299997 0.63163304
0.043244749 -0.079099983 1.0368053
1.3788986 0.4481 -1.4514327
-0.39954549 -0.21330002 1.0619783
1.6533976 -0.026499987 -1.134649
-1.1405227 0.023900002 0.37558976
-1.3379469 0.033100009 0.89616168
-1.2157589 0.036500007 0.73225439
-1.311784 0.031199992 0.98653001
-2.2467206 -0.042999983 1.2215724
-2.7358971 -0.068599999 3.0115423
-1.2352042 0.0062000155 1.5726507
-1.0938537 0.00060001016 1.9057689
-0.84940684 0.029799998 1.6675444
-1.5188956 -0.037200004 2.0465536
-1.8857427 -0.074299991 2.263494
-1.1663321 0.0073000193 1.6546752
-1.1106122 0.0038000047 1.8119357
-0.47739798 -0.38519999 0.94268936
-1.1462502 -0.1532 0.70941484
-0.72233975 -0.1561 0.42240024
-2.2690654 0.013799995 1.6200976
0.82523412 0.361 -0.54110354
-0.037931159 -0.077699989 2.5562363
1.9024405 0.24960001 -1.7352657
-2.6374679 -0.20030001 1.7852776
0.12760256 -0.47480002 0.4356938
-0.126673 -0.12209997 1.0760497
0.20785932 0.0073000193 3.6996279
-0.2615183 -0.19789997 0.34228498
-1.5765247 0.015599996 1.0344718
-1.1369872 0.072699994 1.2460382
1.4042838 0.2368 -1.5311236
-2.1836467 -0.18759999 2.4014506
-0.14937115 -0.095899999 -0.12058711
-0.08170104 -0.095299989 -0.19971234
-2.1662519 -0.011900008 1.822613
0.60652596 -0.099700004 -0.81029898
-2.0650647 -0.17219999 1.1990156
-2.1924856 -0.30959997 1.9823484
-0.22298098 0.24530001 0.27178645
-0.95257372 -0.14079997 2.2489984
-0.55319983 -0.37890002 0.19160053
-2.3597164 -0.067000002 1.5728631
-1.1878989 -0.055999994 1.9597917
-3.626286 0.0024999976 0.017086565
-1.9659284 0.031900018 0.072028816
-2.6480744 0.022300005 -0.027178347
-1.6799037 0.033500016 0.18749928
-3.4374883 0.0082000196 -0.049522936
-2.3056931 0.024000019 0.11806142
-3.367697 0.015500009 -0.23443133
-2.7707574 0.016499996 0.080231249
-2.8406198 0.021200001 -0.10616213
1.8706913 0.236 -1.590662
0.66875136 -0.12200001 -0.764337
-2.7249367 -0.26879999 2.421603
-0.1039042 0.0090000033 1.4170165
-0.35421991 0.0038999915 1.7059402
-0.29864138 -0.3619 1.1498716
-1.2720447 -0.0013999939 2.1860659
-0.77296865 -0.43670002 1.2959599
-2.478086 -0.17719999 1.332588
-2.854974 -0.1737 1.4147539
-2.5685248 -0.17679998 1.3837116
-2.6330838 -0.17779997 1.5341134
-2.5187445 -0.17829999 1.459655
-1.8124156 -0.00849998 0.68077701
-2.1667469 -0.080300003 1.6587763
-2.0953996 -0.081999987 1.5550439
-1.955534 -0.049999982 1.1478918
-2.0561552 -0.074799985 1.4507456
-2.3452206 -0.050599992 1.5314972
-0.93602741 0.031399995 1.4641099
-0.82175905 0.032999992 1.6332498
-0.52010727 0.057000011 1.0544122
-0.62348622 0.048400015 1.2719183
-0.52434987 0.15350001 0.74979061
-0.6867016 -0.20079997 1.6376338
0.60815233 0.2492 -0.7880252
-0.11352085 0.10870001 0.51701105
-1.4987431 -0.055999994 0.60313666
-1.3255019 -0.065299988 0.49339372
-1.537351 -0.037799984 0.56155878
-1.5853636 -0.052399993 0.66218013
-2.0764492 -0.18939999 1.8834243
-1.5058141 -0.155 3.7120023
-1.8534278 -0.15440002 3.2825058
-1.354352 -0.16069999 3.6562824
-1.2348508 -0.36230001 0.9125666
-1.814749 -0.27409998 1.3414268
1.6019909 -0.21019998 -1.5306995
-1.1345124 -0.44859996 2.3433971
0.23324434 -0.015799999 3.0999305
-0.20813169 -0.032499999 1.447705
-0.27353913 -0.0090000033 2.5838134
-0.040618137 -0.021299988 2.3343461
-0.5320574 -0.019099981 1.5944297
-0.096055225 -0.0078999996 2.9516504
-0.50327808 -0.012499988 1.9959955
0.27482218 -0.012199998 3.365237
-0.22814269 -0.012299985 2.4865155
-0.47753942 -0.0088999867 2.2321692
-0.028102413 -0.028499991 1.9698327
-0.42542571 -0.0094999969 2.2917783
0.075135157 -0.018099993 2.7069209
-0.26031619 -0.021299988 1.9515893
-0.20586897 -0.020700008 2.0809898
-0.39650494 -0.022799999 1.6365025
-0.57533228 -0.0041999817 2.3132744
0.061417326 -0.021899998 2.4788079
0.088146016 -0.019699991 2.6434226
0.23027448 -0.013700008 3.207835
-0.18338294 -0.008100003 2.7890866
0.19845466 -0.016299993 3.015785
0.062902257 -0.015199989 2.838089
0.33775467 -0.013099998 3.426048
0.91935009 0.4289 -0.98665148
-0.14915903 -0.051999986 0.85854363
-0.42712265 -0.036199987 1.1288705
-2.4266086 -0.2254 1.5629632
-0.49330789 -0.31490001 0.95987207
-2.7611408 -0.081599981 -0.26059431
-1.8143954 -0.24889997 -0.5542556
-0.14081517 0.24900001 0.11975849
1.2890961 -0.032700002 -1.5945513
0.53623956 -0.10669997 0.23056212
-1.6493568 -0.1934 1.2019147
-1.3462908 -0.17059997 0.94933623
-2.1507661 -0.19119999 2.2980011
-2.1369777 -0.10709998 1.3026066
-1.4856615 -0.10609999 1.2613823
-1.7635545 -9.9986792e-05 1.6788583
0.018708155 0.22860001 -0.12857741
-1.4042029 0.017700016 1.9922478
-0.85739714 -0.22159997 2.0177746
-2.3279672 -0.19100001 -0.020460784
-1.0436491 -0.47660002 1.7623675
-0.30217695 -0.32619998 0.014258146
-0.23132485 -0.30349997 -0.040896177
0.21599089 0.12549999 -0.47604966
-2.6468723 -0.34190002 1.8443213
-1.149008 -0.37350002 0.49961627
-2.7423317 -0.019099981 -0.18875223
-3.0914304 -0.014799982 -0.29305047
-2.5720606 -0.021499991 -0.1109705
-3.1795359 -0.014699996 -0.22304696
-3.2510245 -0.013099998 -0.32182962
-1.4351034 0.45820001 2.6469581
-1.4822675 0.16970001 2.6895964
-1.4368711 0.23730001 2.6477358
-1.0869241 0.0713 2.3216889
-1.2788328 0.0255 2.4998796
-1.4100718 0.3583 2.6231992
-1.5091376 0.73870003 2.7168908
-1.3564024 0.52810001 2.5740552
-1.1212894 0.069400012 2.3536501
-2.4513574 -0.24569997 0.074645102
0.060003147 -0.31259999 0.40146983
0.56395811 -0.14430001 1.3028188
2.1294217 -0.23499998 -1.9302855
1.0091525 -0.064700007 -1.247998
-2.5360687 -0.25189999 0.23770386
-2.2374575 0.94669998 1.2267342
-2.2779748 1.0018001 1.2652715
-2.2631254 -0.066399992 2.8691311
-2.2851872 -0.4589 1.7784896
1.7157644 0.28040001 -1.70486
-1.8198403 -0.22679999 0.99480313
-1.3288252 -0.21510002 2.0679083
-1.0495182 -0.19859996 1.8372502
-1.1912929 -0.21940002 2.4126227
-2.3604941 -0.041799992 1.3766408
-2.1232598 -0.054100007 1.1576498
-1.2569125 0.13870001 2.4458568
-1.2084758 0.26530001 2.3931775
-1.3781813 0.62919998 2.5741966
-1.1313303 0.32780001 2.3099508
-1.1940507 0.20640001 2.3779037
-1.2122941 0.1162 2.3979857
-1.2586097 0.5165 2.4459984
0.52160245 0.015000015 3.1350031
0.49763155 0.016600013 2.6341593
0.48419654 0.013200015 1.7487204
0.51912755 0.014800012 3.0217955
0.39368689 0.0273 0.96878159
0.44615418 0.015000015 0.85083622
0.14973505 -0.1367 -0.3506797
-0.5689683 -0.032399982 1.7983592
-0.42288005 -0.021499991 1.7006371
-0.51324838 -0.0024999976 1.8748682
-0.89268178 -0.25789997 0.63926983
-0.2418607 -0.083599985 -0.25720012
-0.19646446 -0.095599979 -0.079433471
0.87091321 0.039000005 -0.14766926
-0.26767009 -0.49079999 1.0039248
-0.92329949 -0.20290002 0.70071739
0.3011266 0.053000003 0.75247765
0.039214209 0.038900018 1.068413
0.10391451 0.052300006 0.92182976
-0.2758019 -0.14309999 1.1888332
-0.47761011 -0.37969998 0.60433877
1.9404829 0.066300005 -1.5224264
-0.15707862 -0.096300006 0.5889945
-2.0232041 -0.038100004 2.5529835
-0.93390614 0.010900021 2.0507257
-0.47103405 -0.4481 -0.18245894
0.26449841 0.083999991 -0.63727003
-3.0216389 -0.095400006 3.0051074
1.4312247 -0.15129998 -1.1386087
-1.1615239 -0.17590001 2.4040668
-1.055387 -0.15489998 3.3495393
-1.0068796 0.00049999356 0.20022726
-2.7820003 -0.14149997 1.2036119
-2.7404931 -0.14030001 1.2097635
1.9384322 -0.23319998 -1.9237094
-1.9443617 -0.13600001 0.88767648
-0.31030867 0.21630001 0.49134311
0.097974822 0.012899995 3.7366803
-2.7023804 -0.1381 1.7066476
1.9138956 0.2397 -1.839776
-2.147655 0.0020000041 2.195329
-1.5761713 -0.096699983 2.8157446
-1.294955 -0.063299984 2.5179818
-2.914088 -0.073399991 -0.10184878
-1.3158145 0.018299997 0.62130928
-2.1199362 -0.081099987 1.8709085
-1.373373 -0.31369999 0.71719301
-1.1777166 -0.26039997 1.9385786
1.2063646 0.26550001 -1.3057687
1.0487505 -0.11969998 -0.71809226
-1.0310627 -0.23630002 2.0245628
-2.1605241 -0.3917 1.8856163
-0.72439033 -0.44170001 1.6205926
1.1594127 0.31810001 -1.2216229
-2.1776361 -0.19060001 1.1752567
0.42564803 -0.023000002 1.7559328
0.47026652 -0.018299997 2.4522207
-1.2086878 -0.059100002 2.4318562
0.53199691 0.0049999952 0.64195687
-1.6281437 -0.164 2.7999761
-2.1197243 -0.24389997 1.2457553
-3.2697628 -0.0018999875 0.14804274
-2.3630397 -0.00079998374 0.70305079
-2.682369 -0.0031999946 0.44622964
-2.7035823 -0.0036999881 0.41695553
-3.3364429 0.00069999695 0.18714577
-3.5488579 0.00010001659 0.047421396
-2.9935668 -0.002700001 0.28225166
-2.5534635 -0.0047000051 0.4716149
-1.8398514 0.0013000071 1.0678473
1.6488721 0.36759999 -1.5508521
-2.576586 -0.2024 2.5971072
-1.018052 -0.027399987 2.0384221
-1.0619632 -0.037599981 2.0874245
-1.3125618 -0.040800005 2.0868587
-0.88242882 -0.47529998 1.6529074
1.3092487 0.27240002 -1.0937076
-2.2994709 -0.031300008 1.5474072
-2.8092947 -0.10889998 2.726861
-0.95504862 -0.23459998 0.23522905
0.081711337 -0.091399997 0.88194889
-2.6261542 -0.1737 -0.43829024
-0.32579431 -0.46659997 0.84680569
-2.6173861 -0.43329999 2.113941
-1.9872831 -0.37780002 2.7827933
-1.7784746 -0.0986 0.81866276
1.3414927 -0.14149997 -1.0464728
0.46008426 -0.1568 2.0966876
0.26987243 -0.16529998 2.1845102
-0.21173798 -0.31530002 0.67575657
-0.70190436 -0.4524 0.11162676
0.57944381 -0.045100003 0.18933779
0.022385076 -0.22389999 0.79617679
-3.0185277 -0.15529999 3.1175377
-0.22807214 -0.11899999 0.34730545
-0.72276402 -0.036500007 2.0101378
-1.3096627 -0.12319997 2.0696762
0.66670078 -0.11670002 0.10717204
-2.0570037 -0.16249999 1.4954348
-0.58671671 -0.079899997 0.3402344
-1.4254162 -0.17520002 2.6293511
-0.42839551 -0.38159999 -0.21703649
-0.27580184 -0.38350001 0.75466967
-1.1992834 -0.17169997 0.90627342
-0.64462876 -0.099399984 1.4617765
-0.62405199 -0.10050002 1.3962276
-0.7051571 -0.10059997 1.5640242
-0.64222455 -0.24520001 1.6795652
-0.78781778 -0.023099989 2.0740602
-1.2422047 -0.16629997 0.51701105
0.93264371 0.27469999 -0.56083179
-2.5035417 -0.13719997 2.3297498
-2.5295632 -0.26720002 1.6772318
-1.2803886 0.056199998 2.4714541
-1.4115567 0.49959999 2.6105421
-1.2970054 0.7798 2.4862328
-1.1671807 0.49529999 2.3477812
-1.1754539 0.447 2.3569028
-1.2232542 0.398 2.4085217
-1.3009653 0.54760003 2.4914651
-1.3259261 0.88139999 2.5168502
-1.1985762 0.45410001 2.3817225
-1.7391593 -0.24929997 -0.56797355
1.4221736 -0.042400002 -0.91063744
-2.2249417 -0.23340002 1.2474524
-0.70416707 -0.37649998 1.1727111
-2.4741261 -0.39089999 1.4543517
-1.1800501 -0.23779997 2.2633526
-1.8817121 -0.024699986 1.5932276
-0.46113449 -0.22139999 1.1405377
-1.3873738 -0.14220002 1.1987329
-1.5771612 -0.16459998 1.5695395
-1.8385079 -0.16150001 1.7084153
-1.4849545 -0.1464 1.309607
-0.32049102 -0.3989 1.235785
-3.7258465 -0.15519997 1.4113598
-1.3635442 -0.058200002 2.6253207
-1.5623119 -0.063800007 2.8107946
-1.5467556 -0.044200003 0.7948333
-0.95844275 -0.085299999 0.31371787
-0.22319312 -0.0086999834 -0.5471139
-0.60283875 -0.21849999 0.72207201
0.78881812 0.4005 -0.67679727
0.2174051 0.23310001 0.08963576
-0.97279698 -0.23419997 -0.63401729
0.042537645 0.0099000037 1.2664735
2.3700502 -0.20909998 -2.1248105
1.3400078 -0.09739998 -1.5340228
-0.55800813 -0.11279997 1.0091574
0.20064671 -0.34959999 0.59755051
0.049467281 -0.32820001 0.73487067
-3.7039263 -0.14989999 1.5030007
-3.7324226 -0.14970002 1.4725244
-3.6165278 -0.14549997 1.4197037
-1.4522154 0.023299992 1.6830301
-1.1039653 -0.169 0.88053465
-2.7131991 -0.31979999 1.9048495
-2.6992691 0.0028000176 2.8151081
-1.4394875 -0.17639998 1.0111372
-1.5107639 -0.1762 0.99713665
0.82777971 -0.15180001 -0.70218235
-2.0298507 -0.16599998 2.4381492
-0.47789294 -0.4165 0.19817664
-0.13409765 -0.45540002 0.93427479
-1.8356795 -0.0361 2.7484279
-1.6009908 -0.24670002 0.98370159
-1.6357803 -0.25299999 1.0274007
-0.44020414 -0.10349998 0.14224449
0.0078894049 -0.11959997 0.050391316
-0.39961624 -0.08859998 -0.052917004
-0.13784531 -0.11059996 0.03688556
-0.98290861 -0.24869999 0.33309263
-1.8614181 -0.018299997 2.4087338
-0.4217487 -0.15040001 1.1744082
-1.2434068 -0.45509997 0.77432722
2.0200324 0.015399992 -1.5992889
-1.9198252 -0.10840002 0.24781555
1.7214919 0.26929998 -1.5124559
-2.0186787 0.1772 1.0459976
-1.8481245 0.1311 0.87643343
-2.1356342 0.3091 1.1599833
-1.9691811 0.315 0.99338889
-1.8827019 0.087500006 0.91200089
-2.024972 0.078000009 1.0544121
-1.8927429 -0.2951 1.7011321
-0.83710319 -0.49509999 0.339598
1.7711308 -0.21979997 -1.7943089
0.41002101 -0.082100004 0.34023437
-1.675944 -0.17160001 2.4857376
1.6267396 0.25420001 -1.6811717
-2.8075268 -0.2739 2.0107739
-1.8658729 0.012500018 1.1324768
-1.8988948 -0.10770002 0.93993169
2.2509735 -0.20829996 -2.2853239
-2.8891978 -0.17289999 1.3779843
-2.7426145 -0.17520002 1.4252899
-2.9509284 -0.17239997 1.3996925
-3.1402209 -0.16889998 1.2938387
-2.7028046 -0.2078 1.9794493
-2.0940561 -0.39839998 2.9013042
0.031436056 0.29949999 -0.0058236718
-0.96353388 -0.04459998 0.36646801
0.84764928 0.35190001 -0.6800499
-0.17836255 0.171 0.4994041
1.1674738 0.3858 -1.3035061
-1.8831263 -0.058299989 0.21111667
-1.5241989 -0.06309998 0.65404838
-1.6530337 -0.071999997 0.7998538
-1.6102538 -0.02519998 0.57223612
-1.3997481 -0.05309999 0.50668728
1.0920254 0.41460001 -1.2123599
-2.3116329 -0.15919998 1.3389518
-0.36532158 -0.49240002 -0.023289204
-1.2344265 -0.35620001 0.49494937
-0.18090813 -0.24939999 0.7641449
-0.042032346 -0.30529997 0.57393318
-1.6614482 -0.18209997 2.512537
-1.7834949 -0.12999997 1.4510283
-1.5970309 -0.12020001 1.1337495
-1.5444221 -0.11939999 1.0711
-1.4205371 -0.12929997 1.0839694
-1.9988797 -0.17999998 2.0106328
-1.6731863 -0.1708 1.7009199
-2.8119111 -0.27369997 2.0680499
-3.2319324 0.029799998 -0.43397683
-0.88143879 -0.19030002 2.145478
0.16833191 -0.12490001 -0.091383576
-0.76448333 -0.46989998 0.40302545
-0.61917287 -0.46799996 0.21740997
-2.3447256 -0.27970001 2.8476348
-0.73358279 -0.076299995 1.724396
-2.2706208 -0.18759999 2.2665348
-0.28032738 -0.043599993 1.125335
-0.015515879 -0.12380001 3.259454
0.71181417 -0.11649999 -0.4299463
-0.93044132 0.0083999932 1.5792975
-0.64321452 -0.15769997 0.10384858
-1.5936368 0.024900019 0.68402964
-1.4884901 0.01820001 0.50576806
-0.76356405 0.27579999 1.9919651
-0.75946277 0.3132 1.97754
-0.69158059 0.15790001 1.9199817
-0.81589001 -0.087500006 1.8267848
-1.9780201 -0.23349997 1.1046169
-0.69822741 -0.16929999 1.9567511
-1.2958034 -0.0083999932 0.88329238
-0.39827275 -0.49689999 -0.0010860562
-2.8858745 -0.33619997 2.1858537
0.018920228 -0.1561 2.4993849
1.4392856 0.40459999 -1.1065061
-3.2286093 -0.15669999 1.8388765
-3.1815865 -0.16150001 1.709971
-3.3938599 -0.15959999 1.6155014
-3.2153156 -0.16929999 1.4171579
-3.1063502 -0.1679 1.5473363
-3.6198514 -0.16339996 1.3135669
-3.3523529 -0.15879998 1.6736963
-3.2037897 -0.16169998 1.6881919
-1.8613474 -0.12319997 0.80126798
-0.48977232 -0.087599993 -0.1273753
-0.21944545 -0.13890001 1.2153497
-1.8074659 -0.064300001 0.75063914
1.6018493 0.029599994 -1.147589
-2.0893893 -0.081599981 1.0413308
-2.1893742 -0.49329999 1.1616802
1.0940053 0.3599 -0.97958034
-0.51381403 -0.1787 1.4309466
-2.7753534 -0.13719997 2.6724138
0.38456517 -0.021699995 3.5043957
-0.92740071 -0.178 1.568903
-0.91700619 -0.015699983 0.088575095
1.6470336 0.31569999 -1.3534276
-1.2440431 0.026600003 1.9295275
-1.0586398 -0.23319998 1.9896317
0.17278664 -0.18740001 2.3627717
0.58092874 -0.00079998374 0.52825409
0.50215703 -0.12189999 0.26139194
-0.26752871 -0.27879998 0.34829539
0.34433079 -0.098399997 0.03624922
-2.7213306 -0.10569999 2.3875914
-0.96516019 0.015599996 1.7876821
-1.4528518 -0.025399983 1.9018795
-1.4783076 -0.026299983 1.8801007
-1.7470083 -0.059899986 2.1731257
-1.2997632 -0.014499992 1.9067588
-1.1636453 -0.0013999939 1.8410685
1.1346639 0.30770001 -0.87867624
-1.2188702 -0.1823 1.6109052
0.61197072 -0.11429998 -0.74757868
-0.88115591 -0.44579998 0.57471097
-1.0268906 -0.39739999 0.73402214
-1.831154 -0.10199997 0.77743858
0.85472041 0.023400009 3.0563021
2.1910107 0.1494 -1.8907583
-0.0224455 -0.3802 0.14775993
-1.801314 -0.43810001 2.6594737
-1.433972 -0.039000005 2.2948189
1.5011573 0.2361 -1.4441495
-2.2940967 -0.057500005 2.1813989
-1.4434474 -0.16339996 1.4686353
-1.5509982 -0.15339997 1.4298151
-1.4988136 -0.16099998 1.4787469
-1.8155268 -0.16499999 1.7318206
-1.2047988 0.7568 2.3903491
-1.2209208 0.80229998 2.4074609
-0.5787971 -0.15779999 1.0934446
-1.1379772 -0.0045000017 2.3092439
2.2278512 -0.2211 -1.9796417
-0.15403809 -0.032000005 -0.51444554
-0.37097842 0.018900007 1.4862423
1.2989955 0.4844 -1.3729439
-1.3356136 -0.16950002 2.498112
-1.6562865 -0.34669998 1.4293201
2.3991125 -0.0031999946 -2.4136636
1.9540594 -0.011199981 -1.5190322
-2.530129 -0.12740001 1.6524832
-0.61259681 -0.030099988 -0.043724567
-1.0582862 0.045300007 0.45627061
-1.0086473 0.048000008 0.58015573
-1.1234108 0.040100008 0.71203113
-1.0117586 0.047500014 0.68608034
-1.2098192 -0.051499993 0.51220274
0.11841016 -0.20640001 0.7504977
-0.27983236 0.011000007 1.5775297
-0.17518057 0.034099996 1.2992126
-0.042173788 0.0029999912 1.4008238
-1.3859596 -0.00049999356 0.989712
0.40160632 -0.11679998 2.8154614
-1.2447503 -0.019499987 0.65376556
-0.41071784 -0.46150002 -0.17050883
-2.635205 -0.15479997 0.27843314
0.58191866 0.025600016 3.3252857
-0.1729178 -0.12679997 1.0231581
-3.4654191 -0.0049999952 -0.17828709
-0.10970248 0.0361 1.5867221
-0.086509362 0.0352 1.6758175
-0.12525882 0.037400007 1.4882929
0.2386183 0.010700017 3.5411651
0.17405955 0.018999994 2.9902585
0.13000683 0.0033999979 3.7433977
0.1387748 0.023699999 2.6803334
0.19965674 -0.28929999 0.60575294
-1.1270878 0.0038000047 2.0371492
-2.7807276 -0.11399999 -0.23520905
-1.0384165 -0.11829999 0.79631823
-2.2996123 -0.12469998 2.6684539
-1.5727065 -0.18079999 1.3844895
-1.1227037 -0.18069997 2.1905913
-1.1726253 -0.15019998 0.5397799
-0.45314419 0.020000011 1.5310729
-2.7254319 -0.13909999 1.7287092
-1.0711557 -0.15870002 3.4190481
-2.7266338 -0.22529998 2.4399879
-0.96268535 -0.2297 -0.73067886
-2.5212195 -0.146 2.2068551
-1.1009954 -0.14299998 2.5884802
-1.0792166 -0.14830002 2.4432406
-0.54499739 -0.15000001 -0.092232108
-0.93454248 -0.22870001 2.0297246
-1.1801914 -0.23630002 2.0778079
-2.2663782 -0.1521 2.0563824
-1.2116578 1.0139 2.4336948
-1.2087586 0.96940005 2.4317853
0.13439064 -0.0066999793 3.4174216
-0.12667294 -0.0020999908 3.2064209
-0.6169101 0.00069999695 2.5030618
0.018920109 -0.0034999847 3.3841169
-0.13176425 -0.0066999793 2.9551151
-0.093509629 0.00010001659 3.3793085
-0.92188525 0.0013000071 2.0027838
-0.10602551 -0.39860001 0.57400388
-1.861701 -0.21449998 1.2984347
0.16267507 -0.15470001 3.08197
1.4449425 0.46880001 -1.4334724
0.28366101 0.01000002 -0.84056324
-2.1425636 -0.43459997 1.4556954
0.08121635 -0.43890002 0.80367213
0.45782143 -0.098199993 -0.030148149
-0.7279259 -0.089899987 0.47720098
1.7367653 -0.1762 -1.4401896
-0.27240771 -0.081200004 1.4770498
1.2118801 0.34510002 -1.1130114
1.090894 0.013799995 -1.3546298
-1.6179613 -0.21220002 1.0036421
0.02485995 -0.15479997 1.8471496
-0.57710004 -0.47010002 0.25269455
-0.85336667 -0.32799998 0.14882061
-1.0331839 -0.25490001 2.2781312
-0.52102643 -0.033699989 1.7699335
-0.65410393 0.00080001354 -0.345447
0.12138002 -0.083399981 -0.48015088
-0.96035188 -0.027399987 1.4810805
-0.40513164 -0.048399985 -0.33646679
-0.37267548 -0.059199989 -0.28661573
-0.77756482 -0.21040002 1.8337147
-0.13834031 -0.0051999986 1.4883637
-0.45328569 -0.032900006 1.6808381
-0.50950056 -0.047399998 1.6728477
-2.8607013 -0.37869999 2.2714136
0.00095979869 -0.215 2.5825408
-1.0882676 0.011000007 1.9737217
-1.4701053 0.034200013 0.62724906
-0.73563337 -0.11990002 1.7626503
-2.6678731 -0.38329998 2.1754591
-2.1961625 -0.014600009 2.4166534
-0.13049144 -0.49079999 0.84100741
-1.6176076 -0.19170001 2.4446547
-1.935735 -0.41929999 2.7882378
0.34871483 -0.20039997 1.5155165
-1.3896365 -0.12979999 2.835685
-1.291985 -0.13299999 3.0077238
-1.2337902 -0.13969997 3.5095575
-1.2448916 -0.14019999 3.5687423
-1.1963136 -0.13500002 3.0779397
0.71464258 0.031199992 0.1942876
-0.89572233 -0.046700001 0.33302188
-0.55008858 -0.069700003 1.8145521
-0.97286773 -0.29700002 2.2122996
1.2016977 0.2832 -1.0888283
-1.2277089 -0.33860001 1.652271
-1.9970411 -0.10050002 2.3902075
-1.7749389 -0.2929 1.2917173
-0.58516109 -0.15150002 0.10094944
-0.62009215 -0.15309998 0.21776351
-1.7280576 -0.12920001 2.1370633
-1.2984197 -0.17550001 0.97302419
-1.3624837 -0.1568 3.8170078
-1.5885457 -0.15519997 3.5958955
-2.5260279 -0.073199987 -0.48396927
-1.2671655 -0.33379999 1.0338354
0.80918282 -0.23389998 1.0895555
-1.6173956 -0.12530002 1.0679886
-0.48524684 -0.4488 -0.10121238
-2.0080013 -0.31210002 2.4286036
-1.2004147 -0.14119998 3.6089768
-1.1709284 -0.12990001 2.6185324
-1.9474024 -0.022699982 2.2122996
0.39149475 -0.2437 2.1900256
-2.2765605 -0.21000001 1.2320374
-1.702107 -0.16429999 1.1545385
-1.0679028 -0.47989997 0.43336034
-1.9563118 -0.22910002 1.3721154
-1.1335224 -0.049400002 2.3463669
-0.55319983 -0.14210001 1.8260071
-2.4295785 -0.28709999 2.2033193
0.53560317 0.047700018 0.48405993
-2.4659944 0.23290001 1.4490483
-2.5236943 0.48390001 1.5100009
-2.3027234 0.2203 1.273474
-2.4845912 0.70090002 1.4670799
-2.3512309 0.68589997 1.3236783
-2.4261136 0.57090002 1.4046421
-2.3233709 0.16530001 1.2959598
-2.1673124 0.082500011 1.1284463
-2.3930209 0.1693 1.3708425
-2.5483017 0.17580001 1.5377197
2.3115726 -0.10849997 -2.4039059
0.094651386 -0.11829999 0.051310554
-2.5579889 0.8071 1.5455687
-2.606426 0.37090001 1.5995209
-2.611305 0.62459999 1.6036928
-1.1178954 -0.41550002 1.6222188
-0.077104852 -0.11410001 1.1718626
-2.3471298 -0.19710001 2.5234971
-0.88511568 0.014899999 1.8421292
-0.80075794 -0.4172 1.379045
-1.9921621 -0.025399983 1.7876821
-1.8107185 0.0074000061 1.260746
-1.7010462 0.017500013 1.1285877
-1.4444371 0.020500004 1.2109656
-1.7972835 0.0017000139 1.3775601
-1.3984753 0.028200001 1.0890605
-1.8329924 -0.0042999983 1.4722416
-1.731169 0.020500004 1.0554729
-0.68641877 -0.044 1.1937122
0.010152131 -0.30149999 0.10144444
0.18494897 -0.17700002 1.6485941
1.7207141 0.2746 -1.4395535
-3.0185277 -0.095899999 0.0085305572
0.38067609 -0.12499997 -0.37952954
-0.34495687 0.077899992 -0.20600557
-0.14583564 0.0995 -0.11790007
-0.47647876 0.079300016 0.19068131
-0.33017835 0.082900017 -0.10142452
-1.787879 -0.36709997 0.98886347
0.036739334 0.037900001 1.4595137
0.29815668 0.021800011 2.9043448
0.088570282 0.032800019 1.9548419
0.089277312 0.030800015 2.1603272
0.27298367 0.02670002 2.417007
0.24448733 0.025299996 2.5889046
0.13304721 0.031399995 2.0557461
0.35140198 0.017399997 3.3251441
0.29999524 0.028500021 2.1990767
0.33287555 0.023200005 2.7218406
0.29631817 0.035899997 1.4146123
0.30706632 0.027200013 2.3264973
0.20467721 0.024599999 2.6994255
0.31533939 0.020400017 3.0366447
0.066649958 0.03730002 1.4983339
0.21570812 0.033899993 1.7012734
-2.5462511 0.96560001 1.5465584
-2.5773637 1.0454 1.5758326
-2.2929654 0.2306 1.3081222
-2.5304825 0.8689 1.531497
-2.573333 0.19260001 1.568691
-2.2035162 0.032400012 1.2241886
-2.4210224 0.48570001 1.4282594
-2.4459126 0.68669999 1.4521599
-2.312835 0.1284 1.3261533
-2.3855963 0.33380002 1.3946719
-0.40308106 -0.29730001 1.2690191
0.39849514 -0.025099993 1.216269
0.53001696 -0.0029000044 2.1308408
0.44778049 -0.0093999803 0.54982084
0.49034828 -0.011299998 2.0853739
0.39651525 -0.023900002 0.9895705
0.52471381 0.00049999356 1.5018694
0.44247723 -0.019899994 1.834563
2.2555697 0.069400012 -2.2996781
-1.1569277 -0.257 0.94438642
-1.6929853 -0.038399994 0.64040112
1.8264971 0.12170002 -1.4112689
0.40959674 0.027999997 0.73946685
0.12555192 0.0029000044 1.2178246
-1.9533421 0.012500018 2.091243
1.4134054 0.44890001 -1.0917983
-1.0606197 0.71889997 2.2453215
-0.8991164 0.2599 2.0736358
-0.95603848 0.38730001 2.1333864
-1.0181226 0.3892 2.1954703
-0.92096597 0.20480001 2.0943542
-0.89551014 0.171 2.0680497
-2.33921 -0.14210001 1.2962427
-0.68769157 -0.28959998 0.45704845
-2.460479 -0.45500001 1.9239414
1.1558064 0.43430001 -1.2752924
-1.5830302 0.0033000112 -0.40816754
-3.0185983 0.0099000037 -0.4257037
-1.1505636 -0.022699982 0.73791122
0.2931363 0.1092 0.15589164
0.38831282 0.1124 0.12138486
-2.7986174 -0.0065999925 2.9430237
0.37339288 0.34900001 -0.17086238
2.2008395 -0.2376 -2.0319676
-1.1154203 -0.1399 2.5337503
-0.58721167 0.16010001 0.53532517
-0.34778529 0.17490001 0.25842214
-0.43419376 -0.4355 -0.21491516
0.17328165 -0.028999984 0.75756878
-2.9867785 -0.13579997 1.236563
-3.1276343 -0.13710001 1.267817
0.53086555 -0.13079998 2.6519785
-1.8003241 -0.43189999 1.4564025
0.20361643 0.020599991 2.9529231
0.011707708 0.021699995 2.5658529
0.24045675 0.013700008 3.3878644
0.085459039 0.011900008 3.2126434
0.017506048 0.028699994 2.2019758
0.19605045 0.01790002 3.0853641
0.17667584 0.0088 3.538054
0.22787039 0.014499992 3.3222449
-0.47393316 -0.49880001 0.13722402
-0.92421877 -0.0011999905 0.26365471
-1.8551956 -0.43149999 1.5115569
-2.5363514 -0.3335 1.5114858
-0.32112736 -0.0038999915 1.1659937
-2.2767725 -0.27949998 2.0670598
-3.1539385 -0.024699986 -0.54237634
-0.48878247 -0.15089998 1.2036824
0.28443885 -0.25399998 0.55717474
-0.64477015 -0.43899998 1.1553164
1.3982735 -0.09709999 -1.6054406
-2.9058149 0.018700004 -0.065291345
-2.6227601 0.020200014 0.051451981
-3.1038754 0.015100002 -0.069463313
-2.2667317 0.024900019 0.11261678
-3.4237704 0.0073000193 -0.015723169
-2.111239 0.02580002 0.17406428
-3.0813186 0.014200002 -0.030501664
0.5729385 0.10080001 -0.86778682
-2.4983091 -0.40089998 2.1586301
0.56763512 -0.21199998 1.2454019
-0.75140178 0.16180001 1.9263453
-1.131896 0.94700003 2.3341341
0.12972395 -0.071700007 3.0802729
1.0007379 -0.084499985 -1.1864092
-0.60955626 -0.30209997 0.025925428
-0.84035593 -0.4064 1.4664433
-1.1632209 -0.2994 1.8849092
0.22511263 -0.08129999 1.6468971
-2.6274977 -0.077800006 2.2246032
-2.3516552 -0.20000002 1.6423006
1.1702315 0.27520001 -1.1960964
-2.481056 -0.22699997 1.4609988
-2.5067945 -0.20689997 1.4848988
-1.4621856 0.024599999 2.1380532
0.048972279 -0.34709999 0.84482574
-1.9735651 -0.43249997 2.7385283
-0.76384693 0.058100015 0.12067775
-0.62907237 0.061500013 -0.037997007
-0.56649345 0.061300009 -0.21654147
-0.69080281 0.06280002 0.2112581
0.57428193 -0.10520002 0.18686295
-0.66492265 0.14120001 0.58885312
-0.059002832 -0.14939997 1.9310124
-1.8564684 -0.026299983 0.22193539
-1.2492052 -0.25249997 2.4609182
-2.9072289 -0.018999994 2.9441547
-0.78817141 0.13600001 0.86101854
-0.4604274 0.1886 0.43314821
-1.0925102 -0.16330001 0.8164708
-0.093297616 -0.28089997 1.0084503
-0.90519756 -0.31189999 1.9510236
0.12215786 -0.31310001 0.66684699
-0.29001468 -0.085099995 1.112112
-0.63614351 -0.10419998 1.3445382
-0.4728018 -0.109 1.0969093
1.0328406 -0.146 -1.0992935
-2.8496706 -0.12600002 -0.16626626
-0.86602384 -0.060200006 0.22101623
-1.4759743 -0.47959998 0.9182235
-2.8278208 -0.16459998 3.0662723
0.088287428 0.048000008 -0.66739279
-0.61217254 -0.37850001 0.090059996
-0.39664638 -0.43179998 -0.022652805
-2.796284 -0.010499984 2.7950261
1.6561553 0.22660001 -1.7501855
-0.76250345 -0.022500008 -0.066493422
-1.4602765 0.034200013 1.4344115
-0.13296628 -0.18700001 -0.076746464
-1.6417199 -0.015100002 2.5421646
0.62689066 -0.13320002 -0.46735227
0.50569254 -0.064199984 0.18629724
0.8204965 0.2744 -0.99499542
-1.0857219 0.011700004 2.0461292
-0.14321932 -0.14259997 0.55505347
-1.1350074 0.0042000115 0.20362133
0.18190841 -0.030999988 3.0392609
1.270287 0.27560002 -1.0949097
-1.8720955 -0.37619999 2.3371038
2.1993546 0.077700019 -2.2742929
-0.056952298 -0.14409998 -0.19080281
-1.0520637 -0.18819997 0.32220319
-0.64597225 -0.052699983 -0.11655658
-0.039486751 -0.17700002 -0.20925826
0.92670399 -0.10429999 -1.0948389
0.37883765 -0.22580001 0.40762165
-2.1628575 -0.12869999 1.8878083
-0.28753978 -0.46369997 -0.18465096
-2.3225932 -0.012499988 0.36802369
-1.6696508 -0.029599994 0.21938986
-1.4137489 -0.025700003 0.48434275
-1.7029555 -0.0058000088 0.9299615
-3.0339425 -0.013399988 -0.071372449
-1.3933842 -0.033399999 0.26287687
-1.271196 -0.025599986 0.5717411
-1.9143097 -0.016099989 0.49190879
-1.4968338 -0.029799998 0.31202078
-1.7970715 -0.020999998 0.40917742
-2.5210073 -0.0065000057 0.43548161
-1.7943844 -0.005400002 0.88972706
-2.0287194 -0.016000003 0.42954189
-2.0029807 -0.0011000037 0.89948505
-3.1079061 -0.014600009 -0.15028554
-1.7108043 -0.0074999928 0.87360495
-2.5581305 -0.014099985 0.18184239
-1.8424678 -0.0054999888 0.85833156
-1.8450133 -0.015399992 0.55314428
-1.3817168 -0.020999998 0.64902788
-1.9703126 -0.00099998713 0.92253685
-1.9560997 -0.010100007 0.65121996
-2.384465 -0.013599992 0.29625243
-1.5739084 -0.017199993 0.65411907
-1.4715195 -0.15709999 2.2418566
-3.353272 -0.0099999905 -0.14957851
-2.3229468 0.0012000203 0.78670162
-3.3773844 -0.0018000007 0.087372959
-3.3534133 -0.0033999979 0.051664054
-3.0437713 -0.0090000033 0.060644448
-2.8848138 0.00040000677 0.43894655
-2.8889148 -0.0052999854 0.2620284
-3.1269977 0.0013000071 0.32616299
-2.4807727 -0.18899998 2.4205425
-0.24956821 -0.23139998 -0.34735626
-2.7088854 0.0013999939 2.7774899
-2.5513422 -0.1507 2.2924149
-0.62094063 -0.012800008 1.3762872
-1.5742621 -0.068300009 1.3236785
1.3380278 -0.10080001 -0.97752982
-1.9262598 -0.37359998 1.1292241
0.17858498 -0.46189997 0.29759586
-0.16768511 -0.14070001 2.5872781
1.3982027 0.1684 -0.97491354
-1.1299161 0.030800015 1.4120667
-2.9757476 -0.12490001 2.9218812
-0.82310247 0.12710002 0.95294237
-2.0983696 -0.24029997 1.321557
1.5913842 0.22320001 -1.5463972
-1.8305175 -0.25509998 0.13913316
1.3339975 0.26840001 -1.142215
-0.66308415 -0.12259999 1.679636
-1.0180519 -0.062000006 2.3045769
-1.4546902 -0.1187 2.7180221
-2.2539332 -0.076799989 1.6557357
0.28040832 -0.37139997 -0.13444641
-1.107713 0.48480001 2.2871821
-0.96176618 0.29750001 2.1371341
-0.80323279 0.0889 1.9739337
-0.86715513 0.3283 2.0432303
-0.99881846 0.33149999 2.1748936
-0.99903053 0.1637 2.1714287
-2.2518823 -0.35389999 2.7874601
-2.6117291 -0.26890001 2.3083954
-0.14010806 -0.28169999 1.9244363
-0.63331509 0.04520002 1.413269
-0.65148771 0.045900017 1.3390934
-0.49458069 0.060400009 0.93413335
-0.59548479 0.0546 1.010006
-0.81108165 0.036599994 1.4698374
-1.5223604 0.029200017 -0.28767639
-1.861701 0.0091000199 -0.39112616
-1.0152235 0.01790002 -0.32274896
-2.0862074 0.026199996 -0.3202033
-1.1038946 0.014200002 -0.34268939
-1.5486648 0.015599996 -0.35075039
-2.2128501 -0.23010001 1.2094808
1.2368407 0.2687 -1.2208452
0.12272353 -0.085199982 0.43024909
-0.38314065 -0.44710001 0.88689864
-0.61952645 0.0038999915 -0.37861031
-0.7255218 0.010199994 -0.25974572
-1.414951 -0.42660001 1.9445891
0.56021053 0.0986 0.079877704
-1.1123092 -0.22449997 2.1927834
-1.9061781 -0.18960002 1.7205069
1.2325276 -0.059799999 -0.7721861
-2.3098652 -0.50100005 1.2915051
0.31109679 -0.40099999 0.54013348
-3.2368822 -0.15099999 1.89396
-3.2361042 -0.14809999 1.798147
-3.367202 -0.14629999 1.6355126
-2.7999609 -0.13539997 1.6930709
-2.9244823 -0.13839999 1.7024755
-3.0753081 -0.1464 1.8603723
-2.8745606 -0.13780001 1.7191632
-2.988405 -0.060699999 -0.033330262
-1.3927478 -0.14509997 0.81830925
0.40245497 -0.13240001 1.4671504
-2.7725251 -0.2782 1.9645998
-2.6257298 1.2410001 1.6215117
-2.2454476 -0.056800008 2.9596405
-0.51713741 -0.30939999 -0.14385089
-2.0460436 0.0022999942 1.3521042
-1.8146076 0.0058000088 0.9563365
-1.7737368 0.0051000118 1.0025814
-1.8594382 0.011000007 0.77347875
-1.4331943 0.021899998 0.68424183
-2.3136835 0.012699991 0.45924044
-1.7423413 0.027099997 0.3451134
-1.4756207 0.020700008 0.69498992
-2.0646405 0.020999998 0.34666902
-2.2891469 0.0019000173 0.80353075
-1.9136026 0.0046000183 0.93639618
-2.4348109 0.015599996 0.29936355
-2.152251 0.015500009 0.46525091
-1.386596 0.03640002 0.26740241
-2.3734343 0.014899999 0.35607356
-1.4179914 0.0273 0.52705204
-1.7217646 0.014200002 0.75459898
-2.1717672 0.020500004 0.3000707
-2.864449 0.010399997 0.21366221
-3.1383822 0.0040000081 0.25071472
-2.854903 0.0076000094 0.30339402
-1.654448 0.013500005 0.81343019
-2.307178 0.022000015 0.17866051
-1.6350025 0.016600013 0.73119372
-2.5545242 0.0092000067 0.42643076
1.0399823 0.2931 -1.1437707
-1.1257442 -0.40559998 2.366873
0.16522066 -0.12249997 -0.035380721
0.34751278 -0.12240002 -0.16831678
-2.6810963 -0.38600001 2.2917783
-0.09287335 0.025200009 2.1952581
-0.12525882 0.030299991 1.8691406
-0.69200492 0.012500018 1.8297548
-0.20169713 0.028800011 1.8164611
-0.23740597 0.0047000051 3.037281
-0.21548559 0.025000006 1.9920356
-0.32643062 0.0090000033 2.6525443
-0.2222739 0.013099998 2.6132996
-0.56585705 0.022599995 1.5141022
0.042042658 0.0056999922 3.4698889
-0.28280222 0.022300005 2.0206029
-0.46318513 0.026800007 1.4670091
-0.24475987 0.002700001 3.1296294
-0.097115889 0.026199996 2.1348712
-0.54075474 0.015700012 1.9247191
