# .PCD v0.7 - Point Cloud Data file format
VERSION 0.7
FIELDS x y z
SIZE 4 4 4
TYPE F F F
COUNT 1 1 1
WIDTH 1298
HEIGHT 1
VIEWPOINT 0 0 0 1 0 0 0
POINTS 1298
DATA ascii
-1.5803 -0.025337085 -0.026895463
-1.609 -0.041459113 -0.061685115
-1.6374999 -0.032125302 -0.035097897
-1.5740999 -0.05171217 -0.091454327
-1.5979999 -0.011407077 0.07231164
-1.4584999 -0.019468084 -0.025693357
-1.624 -0.014518335 0.097626045
-1.4959999 -0.077450857 -0.14349735
-1.4455999 -0.052277848 -0.110829
-1.6746 -0.092441529 -0.14066893
-1.4435999 -0.0099221617 0.087090179
-1.4043 -0.010487854 0.028824568
-1.3927 -0.029721133 -0.063947856
-1.7091999 -0.020175204 0.12873875
-1.4645 -0.018902421 0.15193185
-1.8006001 -0.038772114 -0.023077071
-1.5216 -0.15353554 -0.22043055
-1.8325999 -0.051429324 -0.045633793
-1.79 -0.023003638 0.12803164
-1.3480999 -0.0099221617 0.099535242
-1.3945999 -0.025478505 0.17703414
-1.8283999 -0.11386684 -0.14399233
-1.6292 -0.05984389 0.25637153
-1.5886999 -0.22254917 -0.25479597
-1.8710999 -0.025478497 0.07195808
-1.3829 -0.045136072 0.22469315
-1.494 -0.22764033 -0.26936239
-1.2672 -0.010346413 0.10773769
-1.6845 -0.25938943 -0.25741225
-1.9393001 -0.065571472 -0.053694785
-1.2696999 -0.020033792 0.16508405
-1.79 -0.072076835 0.27058437
-1.2380999 -0.066066444 -0.15375039
-1.5086999 -0.27558219 -0.28732294
-1.5922999 -0.11598817 0.33005205
-1.2651999 -0.1075736 -0.20614702
-1.2990999 -0.046903841 0.22971359
-1.4346 -0.11004847 0.32227388
-1.6207 -0.13352442 0.34461844
-1.6183 -0.31921068 -0.28003967
-1.3408999 -0.20296231 -0.27876687
-1.6739999 -0.13338299 0.34447703
-1.5267999 -0.31666508 -0.29276758
-1.4615999 -0.30909902 -0.30118209
-1.9912 -0.064652219 -0.038774848
-1.6892999 -0.35626304 -0.27480704
-1.5789 -0.3672232 -0.29198974
-1.859 -0.09541136 0.29674733
-1.1844 -0.092087954 -0.19080281
-1.9940999 -0.033398099 0.12046561
-1.2059 -0.13175666 -0.23386556
-1.9858999 -0.16202082 -0.15608388
-1.5632999 -0.19072935 0.38852978
-1.6107 -0.40102291 -0.28506011
-1.3865999 -0.16081874 0.36554882
-2.0586998 -0.060692415 -0.012611926
-1.1453999 -0.025195666 0.17844835
-2.0023 -0.055742674 0.21620786
-2.0611 -0.10821001 -0.0916664
-1.1047 -0.010063574 0.11636437
-1.7852999 -0.41891268 -0.25331104
-1.2181 -0.10078537 0.31018236
-1.4555999 -0.42082188 -0.30726326
-1.1904999 -0.20409366 -0.28866637
-1.3744999 -0.38256741 -0.32331461
-1.9828999 -0.088340297 0.28684783
-1.7759 -0.23464069 0.40557104
-1.2093999 -0.25960153 -0.31051594
-1.5709 -0.28399673 0.42791563
-2.0174999 -0.07554166 0.26132128
-1.9247999 -0.075258814 0.36851865
-1.0640999 -0.049944401 -0.13805261
-2.0718 -0.17934494 -0.1538918
-1.068 -0.0094978809 0.11410165
-1.9472001 -0.35322249 -0.2284916
-1.6976999 -0.28251183 0.42544073
-1.3853999 -0.25500536 0.41745043
-1.9602001 -0.064298667 0.35798275
-2.0520999 -0.2434088 -0.18797436
-1.9096999 -0.18754737 0.378701
-2.0149 -0.30825049 -0.20982397
-2.0876 -0.052702114 0.19930801
-1.6481999 -0.53763592 -0.24093664
-1.7634 -0.30209869 0.42650139
-1.9675 -0.38631508 -0.22000629
-1.7394999 -0.53035271 -0.22714812
-1.5178 -0.34827274 0.43732014
-1.7098999 -0.3367469 0.43244112
-1.0013 -0.0016490072 0.038087666
-1.8165998 -0.53282762 -0.20869261
-1.3450999 -0.48057243 -0.3166678
-1.9998999 -0.14441386 0.37332699
-1.9331999 -0.24849997 0.40387398
-1.2860999 -0.28427958 0.43003696
-1.5944999 -0.41396293 0.43470383
-1.9819 -0.20960911 0.38548923
-1.6689999 -0.42365032 0.43081477
-1.0453999 -0.18372899 -0.28343374
-1.9301 -0.51628137 -0.18889362
-1.1365999 -0.18648672 0.38527709
-2.0212998 -0.43595397 -0.200773
-1.4957 -0.44366145 0.43413818
-1.4987999 -0.62149882 -0.21519798
-1.1621 -0.38207245 -0.33964878
-1.4385999 -0.6031847 -0.24270445
-1.7925999 -0.61124575 -0.15403324
-2.0478001 -0.087208927 0.40295476
-1.8285 -0.40667978 0.42459223
-1.3887999 -0.42244825 0.44064355
-0.95760006 -0.011407077 0.13524413
-1.6487 -0.66081393 -0.13416356
-1.3562 -0.58112299 -0.27664554
-1.1788 -0.27034956 0.42459223
-1.9758 -0.52335238 -0.17149881
-2.0516 -0.024983525 0.42699638
-1.3128999 -0.56641519 -0.28725219
-0.99149996 -0.17390022 -0.27912045
-2.086 -0.16223295 0.37261987
-2.2328 -0.053267799 0.062553555
-1.0637 -0.1559397 0.36180115
-2.0625999 -0.2168216 0.38478211
-1.7967999 -0.48382512 0.40811664
-2.1629999 -0.31673577 -0.18295389
-0.91539997 -0.039408505 -0.11903146
-1.4717 -0.52172601 0.41334921
-1.2464999 -0.37252653 0.4443205
-1.0009999 -0.10128035 0.31096017
-1.9096999 -0.61025584 -0.11245537
-0.96719998 -0.060268156 0.25750288
-2.2533998 -0.10644223 -0.052139163
-1.5532999 -0.55743492 0.39376235
-1.4440999 -0.67566311 -0.17390293
-0.93230003 -0.10467447 -0.22021842
-2.0852001 -0.04266119 0.43590593
-2.1046999 -0.0074472874 0.41398561
-1.7404 -0.55580854 0.37912524
-1.3312 -0.62715566 -0.24602783
-1.8790998 -0.4717336 0.40465182
-1.3140999 -0.46239975 0.43732011
-2.2210999 -0.25408611 -0.16202354
-0.90790004 -0.012538448 0.14330514
-1.5681 -0.72091806 -0.051714897
-0.9975 -0.13218091 0.34355778
-2.2598999 -0.16880903 -0.11210182
-1.1091 -0.43800464 -0.34028518
-1.7996999 -0.6906538 -0.016076684
-1.4217 -0.69588637 -0.15410393
-1.4744999 -0.71257412 -0.113516
-1.5726 -0.61881173 0.3469519
-1.6423 -0.62963057 0.33132482
-1.9515998 -0.44040877 0.41023797
-1.6997999 -0.63465101 0.31541494
-0.91160005 -0.13020101 -0.24687636
-1.3397 -0.6748147 -0.20374286
-2.1612999 -0.012962699 0.39121678
-2.1954 -0.35993999 -0.17651922
-1.5674 -0.74015129 0.030875206
-1.4419999 -0.7276355 -0.09166646
-1.2987 -0.50602829 0.4283399
-1.1125 -0.31334168 0.43774441
-1.433 -0.60834658 0.36830652
-1.686 -0.72332215 0.11374807
-1.5906999 -0.68365347 0.26938227
-2.0269001 -0.38475946 0.41299567
-2.1578999 -0.13097882 0.39454019
-2.2370999 -0.084734052 0.26952371
-1.6408999 -0.72565567 0.14493148
-1.7129999 -0.70111895 0.19888374
-2.1503999 -0.45285383 -0.16350847
-2.3032 -0.069814093 0.025501162
-1.8401 -0.609478 0.31909192
-1.5974 -0.73237312 0.14132528
-1.5994999 -0.7178067 0.19464108
-1.7909 -0.70507884 0.12477897
-1.902 -0.67813802 0.018642247
-2.3044 -0.14031264 -0.082332641
-1.0281999 -0.38900214 -0.34968972
-1.2462 -0.49839154 0.43300682
-0.93160003 -0.23407501 -0.31511217
-1.0217999 -0.23789337 0.41165218
-1.3671 -0.6142863 0.37014499
-2.2969999 -0.19094147 -0.12221342
-2.1320999 -0.51196796 -0.13621417
-2.3192 -0.0585711 0.069836766
-1.2377 -0.65551066 -0.23407769
-1.8815 -0.65968251 0.2302793
-2.0279 -0.62715566 -0.040118337
-1.2601999 -0.54103005 0.41497558
-0.96569997 -0.17793073 0.378701
-2.1057999 -0.56210184 -0.10319227
-1.1624 -0.44868192 0.44156277
-1.9096999 -0.67410755 0.18318595
-1.0846 -0.51104879 -0.33017355
-1.9672999 -0.5663445 0.33790094
-0.833 -0.055459842 -0.15601313
-1.4298999 -0.76631427 0.065523416
-1.1128 -0.39395183 0.448351
-2.1441 0.014614448 0.48653477
-1.3271999 -0.74191904 -0.10298014
-1.42 -0.73937345 0.19980296
-2.1666 -0.27593571 0.40047988
-0.81090003 -0.0013661683 0.036249191
-1.4018999 -0.76398087 0.11381881
-2.2307 -0.00087119639 0.39439875
-2.1155999 -0.58586061 -0.068685442
-2.0395 -0.64999521 0.021470666
-2.0000999 -0.57617325 0.3251023
-0.88650006 -0.23181227 -0.3141222
-1.9858999 -0.64780319 0.21359155
-1.2282 -0.57546616 0.40161127
-1.2579 -0.63380247 0.36109403
-0.92010003 -0.33158505 -0.34615415
-2.3592999 -0.16011164 0.055836052
-1.0692999 -0.56775868 -0.30811179
-1.3372999 -0.77550662 0.089706436
-2.3718998 -0.062955163 0.066301227
-2.0372999 -0.6538136 0.16048785
-2.1668 -0.36616254 0.40514678
-2.286 -0.39423466 -0.1532554
-1.2948999 -0.72212005 0.26301834
-1.2610999 -0.76574862 -0.059493065
-2.1719 -0.57398123 -0.06345287
-2.2128 -0.013599113 0.47783738
-2.2475998 -0.086218968 0.42954198
-2.2467999 -0.47894606 -0.12935519
-1.1569999 -0.69843209 -0.19822744
-2.391 -0.085511871 0.0090962946
-2.0997999 -0.54039365 0.33811307
-0.7701 -0.045843169 -0.13465852
-1.2666999 -0.78406262 0.061068639
-1.0038999 -0.37853694 0.44721967
-1.1884999 -0.74609101 -0.12242556
-0.79320002 -0.044358253 0.22617806
-0.75340003 -0.0098514557 -0.02809751
-2.1285 -0.52137244 0.34850752
-0.87299997 -0.32606959 -0.34544706
-2.1059999 -0.637833 0.18368094
-0.7683 -0.026468448 0.18297383
-1.1619999 -0.6439141 0.35777062
-1.0441999 -0.47286496 0.44028997
-2.3962998 -0.063662268 0.17915547
-0.78619999 -0.064793639 0.26330116
-2.3727 -0.30994755 -0.1425074
-1.2091999 -0.75005078 0.2178342
-2.2828 -0.26179358 0.39213604
-1.1214999 -0.6149227 0.38181224
-0.83069998 -0.2871787 -0.33710319
-2.2038999 0.08157745 0.54586101
-2.4329 -0.09180513 -0.049381435
-1.1142 -0.73223174 -0.16004363
-2.2161999 -0.60014415 0.0011766553
-1.0237999 -0.63330746 -0.27381712
-2.4236 -0.19292139 -0.10029316
-1.1861999 -0.785689 0.090979248
-2.3169999 -0.10976563 0.41886467
-2.2842999 0.066445366 0.4720391
-2.2791998 -0.54329276 -0.064159989
-2.2772999 -0.32677668 0.40097487
-1.1289999 -0.68195641 0.32821357
-2.4556999 -0.026680596 -0.053836197
-0.71649998 -0.021023735 0.16975094
-2.4537001 -0.18090059 0.0066214204
-0.70590001 -0.07228896 -0.17793345
-2.4243999 -0.088057451 0.24654274
-2.4679 -0.079642899 0.0074699521
-2.4624 -0.13324156 0.049754918
-2.2814 0.099113718 0.51361698
-2.2419 -0.49018908 0.35564932
-2.3209999 -0.30853334 0.39616653
-1.0914999 -0.77932501 -0.062604308
-1.0797 -0.68506765 0.32807216
-0.68349999 -0.038772091 -0.11740512
-0.76210004 -0.12899894 0.34108293
-2.2489998 -0.61753905 0.13255714
-0.95199996 -0.62814558 -0.28364593
-2.4888999 -0.040257052 -0.081696212
-0.88080007 -0.37613276 0.44721964
-2.3559999 -0.41933697 0.25962421
-0.69020003 -0.031064652 0.19393399
-2.3843999 -0.13840345 0.40069202
-1.0820999 -0.74594963 0.24724984
-2.3650999 -0.4988158 -0.080776989
-2.3655999 -0.26108646 0.3873277
-2.3522999 0.067718148 0.46242243
-2.3272998 -0.4445807 0.30593973
-2.3243001 0.096143857 0.50131333
-1.0812999 -0.78773963 0.12994082
-2.3639998 -0.056874052 0.46270525
-2.3423998 -0.3361105 0.39616653
-2.4048998 -0.18111271 0.36321536
-2.3260999 -0.57412267 0.00075241923
-0.86799997 -0.53395903 -0.33088064
-0.79790002 -0.39890155 -0.35506368
-0.65509999 -0.0020025373 0.063331366
-0.69910002 -0.17899141 -0.28435302
-2.4289999 -0.015154749 0.35663927
-2.4547999 -0.33271638 -0.12652677
-2.2779 -0.60396254 0.19294403
-0.796 -0.25974298 0.42091528
-0.89519995 -0.59512377 -0.3054955
-2.3185999 -0.46742022 0.34419417
-2.5177 -0.062672317 -0.077241451
-0.80759996 -0.47060224 -0.34671986
-2.2921999 0.10724542 0.58581257
-2.4026 -0.082683444 0.44396693
-1.0122999 -0.71745324 0.29116118
-0.63050002 -0.014659762 -0.059210211
-2.3088999 -0.58197153 0.23261274
-2.523 -0.17206174 -0.067412674
-0.92790002 -0.69659352 -0.22651166
-1.0266999 -0.79382074 0.11169747
-2.5339999 -0.10997775 -0.045350939
-0.77149999 -0.42400387 -0.35287166
-0.67260003 -0.07971359 0.28274661
-2.3511 -0.47406703 0.3311834
-2.3803999 -0.0073058754 0.50534379
-0.94370002 -0.7278477 -0.18578234
-2.5386999 -0.014730483 -0.1072228
-2.3632998 0.031938553 0.53652722
-2.5335 -0.15685895 0.067574024
-2.4113998 -0.39444682 0.30431336
-0.61330003 -0.0047602654 0.010793328
-0.69440001 -0.13720137 0.34744686
-1.0060999 -0.78328478 0.16847816
-0.84219998 -0.44910619 0.44467407
-0.87420005 -0.65551054 -0.26264483
-0.90179998 -0.57596111 0.4086116
-2.5557001 -0.047610939 -0.090464354
-2.5476 -0.068824142 0.11940494
-0.93559998 -0.75712192 -0.14222455
-2.4914999 -0.38412309 -0.11188969
-2.5572 -0.13981767 -0.019612253
-0.80670005 -0.40123504 0.45054305
-2.3583 -0.57249629 0.23402694
-0.84760004 -0.50015926 0.43802726
-0.6512 -0.098876186 0.30770749
-2.5727999 -0.010770708 -0.11443526
-0.96470004 -0.79961896 0.097838208
-2.5486999 -0.25146979 -0.1015659
-2.5737998 -0.087279625 0.049896359
-2.5592999 -0.072006129 0.17392287
-0.80539995 -0.4611977 0.44304773
-0.69020003 -0.21420529 0.40196481
-2.3720999 0.15709645 0.56806421
-2.5686998 0.13072136 -0.16782182
-0.94209999 -0.79254794 0.15171975
-0.93680006 -0.80584157 0.044522345
-2.4956999 -0.46727881 -0.068190455
-0.5618 -0.037357897 -0.11415243
-2.4638999 0.094658926 0.4813022
-0.90780002 -0.8003968 0.0034394264
-2.3971999 0.08518371 0.58510548
-2.4896998 -0.27119809 0.38174155
-2.4482 0.1157307 0.50689948
-0.71509999 -0.32854444 0.44092637
-2.5500998 -0.041741952 0.32736504
-2.4691 -0.35286894 0.38464069
-2.6039 -0.074905261 0.10483854
-2.4933999 -0.070662618 0.45655346
-0.67910004 -0.41636711 -0.35386163
-0.62360001 -0.2806026 -0.33434546
-2.6162999 -0.068753444 -0.0014396012
-2.5846999 -0.087138213 0.22624877
-2.5992999 -0.22021571 -0.08006987
-2.6178999 -0.023781434 -0.10524291
-2.4668999 0.0023107827 0.52047586
-0.63240004 -0.32656455 -0.34551775
-2.5434 -0.43008497 -0.080776989
-0.88710004 -0.79997253 0.095646188
-0.86359996 -0.72247362 0.28797919
-2.4905 -0.41092241 0.3291328
-0.79690003 -0.57567823 0.40875304
-2.6254001 -0.12581696 0.042330325
-0.56920004 -0.067904912 0.26740238
-0.5316 -0.047964483 -0.13974971
-2.5407 -0.14186828 0.39425737
-2.6368999 -0.021094441 -0.035097867
-2.4126 0.1817745 0.59090376
-2.5418 0.031797141 0.40910658
-2.4394999 0.086244375 0.59111589
-2.5328 -0.38398165 0.29497954
-2.5458 -0.24446946 0.37368053
-2.6129 0.18212804 -0.21922851
-0.69370002 -0.54774749 -0.32515305
-0.71820003 -0.4578743 0.44354269
-2.6394999 -0.19299209 0.030026644
-2.5023999 0.11870056 0.50534379
-2.6457999 -0.16435428 -0.039481938
-2.3964 0.21111941 0.63113809
-2.4038999 0.15547013 0.64308822
-0.82100004 -0.78971946 -0.063523591
-0.75990003 -0.70451307 -0.21618789
-2.6494 -0.073844612 0.13814327
-2.6610999 -0.12624122 -0.021167874
-0.5686 -0.27925912 -0.3338505
-2.6608999 0.093386158 -0.11775869
-2.5671999 0.053646743 0.43251181
-0.51820004 -0.14002979 -0.25444239
-0.66820002 -0.39359829 0.4495531
-0.49470001 -0.066632107 -0.17057955
-0.48379999 -0.0036996156 0.018359363
-2.6675999 0.071253687 -0.16874105
-2.5367999 -0.55842489 0.10413143
-0.49520004 -0.022155106 0.17257938
-2.4833999 -0.51522064 0.37700397
-0.73449999 -0.59632576 0.40012634
-2.6782 -0.08133994 0.097131088
-0.78100002 -0.72876692 0.27970606
-2.6048999 -0.14886864 0.38287294
-0.47510004 -0.0070937276 0.10250509
-2.5780001 -0.06033887 0.46503872
-2.6903 -0.10969492 0.028188169
-0.48280001 -0.10241173 -0.21724856
-2.698 -0.036014393 -0.025410533
-0.49980003 -0.16788983 -0.27579707
-2.5379 0.03717117 0.55505347
-2.6512001 0.23926225 -0.24228019
-2.6506 -0.053409219 0.32248601
-0.77160001 -0.80428588 0.062765703
-2.4496999 0.23049414 0.64471459
-0.50880003 -0.24439877 -0.31935483
-2.5622001 -0.46232906 0.32948637
-2.4026999 0.26203108 0.69647479
-2.5816998 -0.54753542 0.091686353
-2.7163 -0.0028510988 -0.11231393
-0.4752 -0.056025513 0.25184605
-2.6768999 -0.10573512 0.27708974
-0.4393 -0.00080049038 0.054351121
-0.61480004 -0.41566002 0.44912884
-0.58050001 -0.33116075 0.44127995
-2.7191999 -0.16110158 0.06729117
-2.6958001 0.2023513 -0.19702536
-0.59180003 -0.51925111 -0.35039681
-2.6492999 0.023453295 0.40316689
-0.53009999 -0.38044611 -0.35258883
-2.5716999 -0.45363164 0.38471141
-0.43599999 -0.088411003 -0.19900525
-2.6677001 -0.16562706 0.35593215
-2.6494 0.04834345 0.42932984
-0.67019999 -0.62955987 0.37764031
-0.59750003 -0.58373934 -0.31023318
-2.6352 -0.33589837 0.3747412
-2.7426 -0.17142534 0.024016231
-2.5532 0.10590193 0.61784452
-2.6829998 -0.44592419 -0.031986594
-0.45090002 -0.22205418 -0.31016237
-0.66440004 -0.67926943 0.33952728
-2.7581 -0.13967624 0.00032815337
-0.39859998 -0.0010833293 0.056613877
-2.6740999 -0.48177451 0.00032815337
-2.6587999 -0.51366502 0.04339096
-2.7003 0.26790008 -0.28802997
-0.40720004 -0.016427532 0.15864937
-2.7403998 0.146207 -0.21668291
-2.5953 0.071536541 0.58828747
-0.67129999 -0.7610817 0.22787511
-0.38730001 -0.065995693 -0.16980174
-0.49940002 -0.29241133 0.43435031
-2.7691 0.10858893 -0.1875501
-2.7244999 -0.41191235 -0.045775175
-2.777 -0.19277997 -0.03679496
-2.6041999 0.18990621 0.57923645
-0.6455 -0.79452789 -0.041603267
-2.6664999 -0.0087200701 0.51043499
-2.6768 -0.5306356 0.11212173
-2.6670001 -0.53402972 0.16770035
-0.36590004 -0.023922876 -0.081766963
-0.45460004 -0.35230324 -0.34891188
-0.5643 -0.52646363 0.42911771
-2.727 -0.21180114 0.3516188
-0.4113 -0.11492752 0.32870856
-2.7223001 0.32588285 -0.3000508
-0.44550002 -0.20939697 0.3999849
-0.54320002 -0.63054979 -0.28180742
-0.60699999 -0.77402174 -0.10156593
-2.5922999 0.14726767 0.65694749
-0.41729999 -0.16336432 0.36752871
-0.5007 -0.50786674 -0.3875199
-2.6775999 0.023170426 0.54076988
-0.5492 -0.67092562 -0.25076544
-0.62120003 -0.80442727 0.033632874
-2.8106999 0.076274171 -0.10856628
-2.7467 -0.0032046437 0.38555992
-0.49919999 -0.40328565 0.45075518
-0.4544 -0.28237039 0.43024909
-2.6943998 -0.45426807 0.31605136
-2.767 -0.049308002 0.34270924
-0.60470003 -0.79686129 -0.023854882
-0.55849999 -0.71313977 -0.2050156
-0.5711 -0.63854003 0.37078142
-0.50910002 -0.56874871 -0.36397326
-2.7038 -0.51387715 0.2257538
-2.7770998 0.26797077 -0.24496716
-2.8313 -0.080844969 -0.039552659
-2.8058999 -0.096684158 0.22433959
-2.7502 0.030877903 0.41978389
-2.6782 -0.49789652 0.35713422
-2.7618999 -0.21710443 0.3522552
-2.7346001 0.071182996 0.45867476
-2.5416999 -0.60353827 0.53900206
-0.33899999 -0.10403807 -0.21944064
-2.5427001 0.30799302 0.72320342
-2.8364 -0.089400955 0.13602194
-2.6011999 -0.5476768 0.51510191
-2.8488998 -0.035660833 -0.073281646
-2.7937 -0.40830609 -0.029723883
-2.8511 -0.096684165 0.011217624
-2.7003999 -0.46367255 0.39701504
-0.48400003 -0.48573431 0.43986571
-2.7021999 0.067011058 0.58220631
-2.7296999 0.13050926 0.51785958
-2.8436999 -0.2400147 -0.042168945
-2.7412 -0.47986531 0.27744329
-2.8243001 0.23339331 -0.22043061
-2.8302999 0.1930882 -0.2426337
-0.54290003 -0.72120082 0.28967625
-0.33990002 -0.10997777 0.32220316
-2.6785998 0.12357959 0.63707781
-0.49349999 -0.57405198 0.40938944
-2.8666 -0.102341 0.094514787
-2.8401 -0.11478609 0.25969493
-2.7755001 -0.51119018 0.11912209
-2.8725998 -0.15233347 0.01524812
-2.8190999 0.29172963 -0.26222062
-0.47220004 -0.66088462 -0.29107052
-0.4515 -0.5773046 -0.38398439
-2.7995999 -0.052843541 0.45273507
-2.8360999 -0.40250781 -0.020248652
-2.523 0.34490401 0.8114503
-2.7956998 -0.40187144 0.30905098
-0.51990002 -0.80329597 0.024723351
-2.7333999 0.18410796 0.57343817
-2.8778999 0.13722679 -0.19681323
-0.2999 -0.22530687 -0.31143516
-0.25639999 -0.042944029 -0.12765819
-0.39579999 -0.3931033 0.44948238
-2.7995 0.013270944 0.51998091
-2.9196999 -0.067834184 -0.01437968
-2.8262 -0.41763991 0.28154454
-0.48629999 -0.76178873 0.22603664
-2.8594 -0.43284273 0.011500448
-0.48860002 -0.80612433 0.046077967
-2.8908 0.19075474 -0.23450202
-2.6445 -0.58982038 0.57350892
-2.8179998 -0.43970165 0.30841458
-2.76 0.10583121 0.61692524
-0.44690001 -0.65621769 0.35720497
-0.41970003 -0.56287968 0.4140563
-2.8334 0.078819737 0.47748381
-0.22750001 -0.032125309 -0.10142452
-2.9301999 0.079526857 -0.1471743
-0.27899998 -0.1399591 0.3494975
-2.9398 -0.040610582 -0.035380721
-2.8553998 -0.39381042 0.29420173
-0.36290002 -0.49669448 -0.42754215
-0.44160002 -0.75733399 -0.20805615
-0.29790002 -0.35590947 -0.36821586
-0.2366 -0.14101976 -0.25514954
-2.7191999 0.27709249 0.67094821
-2.8302 0.1170035 0.5145362
-0.37590003 -0.54760611 -0.41976398
-2.8606 0.3686628 -0.31808203
-2.9477999 -0.11252335 0.016874462
-0.47860003 -0.84522736 -0.094141304
-2.7126999 0.21020019 0.71818292
-2.8892 -0.088057458 0.39885354
-2.9201 0.2176955 -0.25069475
-2.8855999 0.32446864 -0.33201206
-2.9129 -0.40901321 0.012843937
-2.7911 0.12506452 0.63347155
-2.8622999 0.40154329 -0.34191155
-2.8703001 0.077546954 0.48186788
-2.8868999 -0.48368368 0.12258692
-2.697 -0.63252962 0.54324472
-2.8927999 -0.047893785 0.44113851
-2.7828 0.15143961 0.66041231
-2.8785 -0.46968296 0.24534066
-2.6931999 0.33903506 0.74024469
-0.3854 -0.71434188 -0.27028161
-2.8169 -0.4950681 0.4350574
-0.38 -0.62468076 0.38138801
-2.9649 -0.25408611 -0.013106853
-2.803 -0.54513133 0.43576449
-2.8253 0.11141738 0.61685455
-2.9333 -0.19468915 0.32658723
-2.98 -0.1154932 0.1097883
-2.5967 0.387189 0.85783654
-2.6854999 0.28953755 0.78903508
-2.7681 0.19414887 0.70227307
-2.6599 0.37941089 0.79080284
-0.168 -0.010134295 0.12548606
-0.1874 -0.16442499 -0.27318072
-0.15839998 -0.045913875 -0.13472924
-2.9609001 -0.15410122 0.30763677
-2.9145 0.065172583 0.47769594
-2.9140999 -0.41170022 0.31223297
-0.24690001 -0.2738851 0.42671353
-2.8148999 0.24682829 0.64209825
-2.7423 -0.59639651 0.5816406
-0.14830001 -0.023993596 -0.081696212
-2.8545001 -0.49726012 0.43526953
-0.15710001 -0.02243793 0.17314506
-0.31590003 -0.59880066 -0.40024781
-0.38660002 -0.82613552 0.057462364
-2.9552 -0.071016185 0.40217695
-2.9533999 0.30947798 -0.31391007
-2.9066 0.058737919 0.55031586
-0.20630001 -0.33222142 -0.37069076
-0.1468 -0.10799786 -0.22453177
-0.3617 -0.79721487 0.11608154
-2.6866999 -0.69284594 0.63453221
-2.8920999 0.098760158 0.59486353
-2.8671999 0.21394783 0.61416757
-2.9765999 -0.23492353 0.33825448
-0.29930001 -0.56726372 0.41221786
-2.9977 -0.13854487 0.30862671
-0.2246 -0.31001827 0.43852222
-2.8841 0.48887101 -0.44451272
-3.0223999 0.18205732 -0.19525757
-2.9528 0.013483077 0.49304014
-0.32380003 -0.75457633 -0.24319941
-2.924 -0.47152147 0.3648417
-3.0353 -0.23152943 0.012136817
-2.8727999 0.52655971 -0.45914984
-0.10630001 4.8041344e-05 0.047987163
-2.7584999 -0.66378379 0.59373218
-2.8543 0.1891284 0.69173717
-2.9851 0.3434898 -0.3042227
-0.30470002 -0.68252206 0.33698171
-2.9447 0.11679137 0.53228462
-0.27410001 -0.64235842 -0.36319542
-0.11580001 -0.13416082 -0.24998766
-2.7769001 -0.62581217 0.62194574
-2.9326999 0.4605867 -0.42527938
-0.18879999 -0.38391089 -0.43411821
-0.30779999 -0.79007304 -0.21038967
-3.0218 -0.069672681 0.38499424
-0.34369999 -0.88185549 -0.008864224
-2.8502998 0.23501962 0.73776984
-3.0077999 -0.45250028 0.18827716
-0.2131 -0.44712624 0.4449569
-0.28799999 -0.7547884 0.24293649
-2.7983 0.30219477 0.80452067
-2.7386999 0.36739001 0.86123067
-2.9359 0.49601272 -0.45009887
-3.0256999 -0.44542921 0.13849682
-0.064299986 -0.019043833 -0.06995827
-0.1574 -0.28357249 0.43074405
-3.0235 -0.34777775 0.32340524
-2.9382 -0.51712984 0.45542207
-0.1161 -0.16824336 0.37127638
-3.0079999 0.40472528 -0.34820479
-3.0397 0.31966031 -0.30938458
-3.0427999 -0.040257037 0.41158146
-3.0853999 -0.28159258 0.020622134
-0.1646 -0.35456598 0.4443205
-3.0248001 0.01263456 0.47408968
-0.23239999 -0.68711829 -0.32437533
-3.0439 -0.4387117 0.20970246
-3.0806999 0.24788895 -0.24581569
-2.8016 0.40543237 0.80819762
-3.0862999 -0.15756604 0.27192786
-3.0472 0.35614702 -0.31702131
-2.7544 -0.73039329 0.68791878
-0.29079998 -0.88532031 0.022743434
-2.9249001 0.21423072 0.708637
-0.060500011 -0.19553772 -0.29708093
-3.0014 0.48158774 -0.40173274
-3.0602 0.0023107976 0.45273507
-0.1666 -0.52533233 -0.45603859
-2.7716999 -0.7030282 0.72970879
-2.9096 -0.61669052 0.55173004
-2.8118 -0.67771375 0.69364631
-0.21890001 -0.77013266 0.20595482
-2.8459001 0.32970122 0.83018863
-2.9972999 -0.51734197 0.43739086
-2.7349 -0.73682785 0.76690257
-2.8460999 -0.65536916 0.66111946
-2.803 0.43951491 0.84581578
-0.2093 -0.73612082 0.27008939
-3.0685999 0.030382946 0.48137289
-2.7993 -0.72374642 0.68268621
-2.7251999 0.46086952 0.93788105
-3.1380999 -0.13041314 0.18679222
-0.25849998 -0.88708806 -0.099373877
-2.7418001 0.49035588 0.91207159
-0.17419998 -0.61478132 0.38902476
0.00030000508 -0.035024449 -0.10842484
-3.1531 -0.14844438 0.11502087
-0.18460001 -0.69744205 0.32064751
-3.1503 -0.29340124 0.043320268
-3.0105 0.17420843 0.65136135
-3.1076 -0.41304371 0.22858223
-3.0988998 0.36640009 -0.33462828
-3.0437 0.47918358 -0.42718863
-2.8237 -0.70133114 0.72617328
0.0093000084 -0.12419063 -0.24228019
-2.9547999 0.6352421 -0.53459817
-3.1677001 -0.13720137 0.20673263
-3.0084999 -0.55149525 0.49671713
-2.8959 -0.65480351 0.65758389
-0.186 -0.82097363 -0.19645965
-0.13899998 -0.6302669 0.37707466
-3.0369999 0.21260434 0.64167404
-3.1591001 -0.38087037 0.10109088
0.0067000091 -0.099795423 0.30890957
-2.9080999 0.3381865 0.83542126
-3.0479 0.54317677 -0.44705826
-3.0014999 0.28791121 0.70566714
-3.1933999 -0.23909545 0.057603806
-3.0507998 0.17894605 0.64718944
-0.12550001 -0.70210898 -0.32197112
-2.7827001 0.47628447 0.95852858
0.047399998 -0.011124238 0.1329814
0.012000009 -0.12426132 0.33747667
-0.091399983 -0.56584942 -0.44620973
-2.8188999 0.44990942 0.93964881
-0.14799999 -0.81156909 -0.21010679
-0.091000006 -0.57475901 0.40910661
-2.8804998 0.3977249 0.89396966
-3.1805999 -0.23711556 0.31074804
-2.9012001 -0.69051242 0.70814204
-3.1055999 0.47798154 -0.41721839
-3.0105 0.26896074 0.75148767
-3.1949 -0.37111229 0.10872763
0.0085999966 -0.32041276 -0.40965241
-0.061700001 -0.51670563 0.43321896
-0.16700001 -0.89719975 0.044380903
-3.0086999 0.64768708 -0.55185151
-0.055199996 -0.53091842 -0.46402889
-0.10239999 -0.76433432 0.2199555
-3.1901 -0.34148452 0.28911057
-3.0857 0.20475546 0.66564494
-3.1926 -0.38002184 0.24703771
-0.13349999 -0.86043012 0.11466733
-2.9282999 -0.72120082 0.69682831
-2.9442999 -0.68888605 0.70283872
-0.084399983 -0.74276757 0.26146269
-2.8864999 -0.73315096 0.76902395
-3.2481999 -0.15311128 0.19959085
-3.0279 0.67894125 -0.5435077
-0.060100004 -0.70217967 -0.32798153
0.032200009 -0.26935965 0.42487508
0.070299998 -0.26504627 -0.33476973
-0.021699995 -0.53975725 -0.46268535
-2.9296 -0.71526122 0.74165893
0.068300009 -0.17192031 0.3741048
-2.809 -0.80577075 0.86469549
-3.1366 0.53751993 -0.44917959
-2.9596 0.45245501 0.86130136
-3.2474 -0.23089302 0.29391891
-3.2658 -0.3081798 0.091474235
-2.7795 0.57747138 1.0380781
-2.816 0.57372379 1.0018034
-3.0332999 -0.65763199 0.63212806
-2.9661 0.40302822 0.89488894
-3.2820001 -0.2625007 0.086665913
-3.2763 -0.17184961 0.23855244
-0.015100002 -0.61923605 0.38555995
-0.1021 -0.91600883 0.016803741
-0.079099998 -0.86728907 0.11360666
-0.040600002 -0.78137565 0.17873123
-3.0111001 0.37092552 0.85741228
-0.036200002 -0.74983859 0.25227031
-3.0288999 -0.6807543 0.66203868
-0.012500003 -0.70960426 -0.32409245
-3.0012 -0.70083618 0.7149303
-2.8529999 0.57817852 1.0008843
-0.064800009 -0.88949227 -0.1351535
0.1674 -0.0027803779 0.025501162
-2.8590999 -0.80753863 0.8736757
0.013099998 -0.65402567 -0.3800953
0.1153 -0.17828427 0.37891313
-0.030599996 -0.82019579 0.15603307
-3.2999001 -0.24496445 0.24703771
0.1193 -0.29340124 -0.38801485
-3.1415 0.6192615 -0.51706189
0.048700005 -0.52660501 -0.47286767
-0.034799993 -0.86849117 -0.16364989
-3.3295999 -0.22481191 0.11219245
0.1472 -0.13203949 0.34341636
-3.1113 0.32977194 0.79405546
-3.3109 -0.28979501 0.27786756
0.03140001 -0.71907949 -0.31504148
-2.9789 0.465395 0.95570016
-3.0999 0.35169223 0.82021844
0.11960001 -0.29269415 0.43449172
-3.0946999 0.39001748 0.82035989
0.2025 -0.032973841 -0.1034044
0.12920001 -0.28604734 -0.47300905
0.061499998 -0.5810523 0.4064903
-3.1778998 0.61919081 -0.50893015
0.2007 -0.079784304 -0.18769151
0.2068 -0.0040531605 0.079382703
0.1228 -0.38369879 -0.4644531
0.078300007 -0.0253371 -0.71307188
-3.3462999 -0.28922933 0.15638661
0.1786 -0.11238192 0.32531443
-0.022200003 -0.92675674 -0.056876719
0.10550001 -0.46798593 0.44219917
0.1741 -0.29396695 -0.39409596
0.0030000061 -0.90568495 0.072240919
-3.0376 -0.76023316 0.77008462
0.21350001 -0.16838476 -0.27615058
0.064199999 -0.74495959 0.25870496
0.0449 -0.82196355 -0.21215743
0.1904 -0.16506138 0.3688015
-3.3815 -0.24765144 0.14408298
0.177 -0.24397451 0.41433918
-3.3836999 -0.18783021 0.20857111
0.1591 -0.1451917 -0.57214552
-3.1845999 0.67399156 -0.5512858
0.16530001 -0.17757717 -0.54428548
0.1706 -0.38157746 -0.41467279
0.1485 -0.39713383 0.44997737
0.1076 -0.63062048 -0.4035005
-3.0507998 0.46815273 0.95138675
-3.0792 -0.74792945 0.7628721
0.17660001 -0.37181938 -0.4589377
0.16580001 -0.42499378 -0.47986799
-3.0441 -0.7868911 0.8072077
-2.8627999 -0.9026444 0.9765597
-3.3945 -0.30026019 0.22228898
-3.3998001 -0.26787472 0.25439161
0.122 -0.68945169 0.33090058
0.2113 -0.2221249 -0.49705076
0.2586 -0.17694077 -0.28272671
0.1649 -0.024276406 -0.67934293
0.28310001 -0.010487825 -0.032976568
-2.9034998 -0.87959278 0.97175145
0.17550001 -0.44040874 0.44587612
0.1859 -0.064935029 -0.6301989
0.15710001 -0.068046331 -0.71392041
0.14220001 -0.66640007 -0.3677209
-3.1714001 0.40783653 0.85500807
0.1758 -0.49662372 -0.48913109
0.15700001 0.035261989 -0.73760849
0.2401 -0.30075517 -0.42648149
-3.0969999 0.49035588 0.96736741
0.14140001 0.11283159 -0.78505534
-3.0785 0.5463587 0.96694314
0.12639999 -0.8090235 0.17625636
0.2383 -0.19051719 -0.51593047
0.2156 -0.40795258 -0.47838312
0.1805 0.007755518 -0.71943587
0.1507 -0.73619151 0.27016011
0.1778 -0.028094769 -0.73463863
0.1469 -0.77289033 0.1993787
0.15290001 -0.7536571 -0.28046393
0.12670001 0.16565248 -0.83731049
0.3213 -0.065359324 -0.16888249
0.1149 0.20878598 -0.86997885
0.13590001 -0.85413694 0.074432939
-2.9933 -0.88751233 0.93498188
0.25080001 -0.19886109 -0.56457943
0.1242 0.12534738 -0.88991934
0.3337 -0.0034167767 0.07450366
0.33429998 -0.010982826 0.13170861
0.1191 -0.928666 -0.066705585
-2.9693 0.64860642 1.1250522
0.2403 -0.072713196 -0.66456431
-2.9942 0.66989028 1.091606
-3.0653999 0.61339247 1.0321383
0.13600001 -0.9112004 0.14775991
-3.0442998 0.64174736 1.0602105
0.2376 -0.56033409 -0.45625067
0.27109998 -0.41141734 -0.47873664
0.28030002 -0.54173714 -0.26214987
0.2904 -0.39069915 -0.41559201
-3.1979001 0.48639604 0.94007307
-2.9831998 0.68169892 1.138063
-2.9733 -0.91445315 1.0199054
0.18900001 -0.85378337 0.14592144
0.2402 -0.075753778 -0.75698322
0.16940001 -0.89613903 0.15207329
0.2252 -0.74807096 0.25460374
0.29769999 -0.42103407 -0.45568502
0.2014 0.18877482 -0.83144158
0.1381 -0.95532393 0.20192429
-0.12179999 0.55562186 -1.2141275
0.17650001 -0.90667498 0.081433296
0.29100001 -0.41488221 0.44919956
0.28030002 -0.56033409 -0.393601
0.28030002 -0.5220089 -0.44677544
0.17750001 0.1477626 -0.90554625
0.3924 -0.011902064 -0.043724597
0.3635 -0.23584276 -0.31589001
0.19660001 -0.88800728 0.11169749
0.3184 -0.22445834 -0.55425566
0.2649 -0.65296507 -0.38115597
0.095200002 0.37523887 -1.0051777
0.34350002 -0.22643825 0.40712669
0.28030002 -0.63295388 -0.34276003
0.3477 -0.30344218 -0.40357119
0.1873 -0.93170655 -0.060836554
0.1846 0.23841369 -0.9062534
0.39950001 -0.10531084 -0.22099626
-3.1647999 0.58136058 1.0148144
-3.0543001 0.65369749 1.1332546
0.23559999 0.19287607 -0.82705742
-3.1417999 0.61615026 1.0438056
0.3554 -0.46091488 -0.28385806
-3.1887999 0.55258119 1.0141778
-2.9774001 -0.9717288 1.052008
0.29879999 -0.71717036 -0.16916534
0.1876 0.29880065 -0.92166835
0.0059999973 -1.1822344 0.393621
0.34920001 -0.25705594 -0.53254753
0.28030002 -0.78073931 0.0059850216
0.34210002 -0.57511258 -0.22948152
-0.067300007 0.56665266 -1.213845
0.28240001 -0.74078774 -0.29333329
-0.040199995 0.58468401 -1.1730449
0.133 0.39454302 -1.0008643
0.2182 -0.91226113 0.18700436
0.41760001 -0.15749535 -0.26780671
0.3193 -0.69510865 -0.14710361
0.2956 -0.74906087 -0.20105582
0.2253 0.14804548 -0.9123345
0.28030002 -0.81864011 -0.032057315
0.069800004 0.48639616 -1.0794239
0.31130001 -0.62347871 0.38230726
0.37580001 -0.11040202 -0.55234647
0.28030002 -0.83568144 -0.074554443
-3.1238 -0.8891387 0.97436774
0.3919 -0.17213243 -0.49910134
-3.0806 -0.9164331 1.0182084
0.3502 -0.66159177 -0.11358675
0.29100001 -0.81913519 0.074362218
0.27270001 -0.45221743 -0.75627607
0.3423 -0.52547371 0.42954198
-3.2158999 0.58220899 1.0272593
-3.1032999 0.66932464 1.1442149
0.2832 0.14585349 -0.84706861
0.37380001 -0.42195329 -0.48022163
0.38950002 -0.3222512 0.44014859
0.28030002 -0.87789571 -0.10602069
0.04900001 0.53723717 -1.134366
0.2406 -0.35244468 -0.90993041
0.072300002 -1.162294 0.39715654
0.2376 -0.95581889 0.18092322
0.26120001 -0.93234289 0.0093791187
-3.0737 -0.95383894 1.0383608
0.34170002 0.12654942 -0.75196272
0.3443 -0.23244867 -0.73308295
-3.1943998 0.61862504 1.0833328
-3.1311998 -0.91056406 1.0045612
0.38950002 -0.40816471 0.45011878
0.28729999 -0.89076507 0.10893974
0.41949999 -0.47378424 -0.2709887
0.4201 -0.33321139 -0.43334043
0.48409998 -0.0063866079 -0.001722455
0.1167 -1.1188776 0.41087431
0.43630001 -0.2862595 -0.39784366
-0.010600001 0.55548048 -1.2411392
0.36089998 -0.081269264 -0.73972982
0.048900008 0.5650264 -1.1577713
0.1666 0.45082864 -1.0331082
0.37440002 -0.54364634 0.42197591
0.30250001 0.12662014 -0.87846416
0.27149999 0.29335597 -0.90066737
0.38929999 -0.62072098 -0.27508992
0.37470001 -0.032196045 -0.7165367
0.42610002 -0.13246375 -0.54612392
0.44889998 -0.18118341 0.38110515
0.10510001 0.53801489 -1.1075666
0.28580001 -0.38815355 -0.88214105
0.42699999 -0.38419375 -0.46749365
0.3962 -0.52837282 -0.47279698
-3.1684999 0.69499254 1.1261835
0.35949999 0.17201647 -0.78583318
0.45380002 -0.35407102 -0.39070189
0.45910001 -0.20451793 -0.46077615
0.2843 -0.4950681 -0.85456389
0.41769999 -0.21215469 -0.62411779
0.3876 -0.68089581 -0.33526468
0.39390001 -0.20939705 -0.71116275
0.41500002 -0.3047857 -0.6186024
0.46130002 -0.1485858 -0.50624317
0.074699998 0.54246962 -1.1903689
0.21090001 0.44545457 -1.0206633
0.33050001 -0.89500773 -0.13204226
0.38880002 -0.29750249 -0.71087974
0.36760002 -0.34940413 -0.75090212
0.1998 -1.0845124 0.34836608
0.1935 -1.0805525 0.38782266
0.4197 -0.081764191 -0.68238342
0.38749999 -0.68054223 0.33853734
0.40259999 -0.62206447 -0.41205651
0.3186 0.21387711 -0.90646547
0.37220001 -0.78880024 -0.24532074
0.42180002 -0.50312912 -0.48573703
0.37990001 -0.75740469 0.23678464
0.41140002 -0.57992089 -0.44613904
-3.0311 -1.0147209 1.1433663
0.4456 -0.38016325 0.44771463
0.48199999 -0.34219164 -0.35647792
0.35420001 -0.87238026 -0.16174072
0.35089999 -0.42775154 -0.79276282
0.3653 -0.84190392 0.13757759
0.31420001 -0.3138366 -0.92675954
0.26820001 -0.59413379 -0.88900012
0.37260002 -0.43800458 -0.73527497
0.12900001 -1.1703551 0.47861522
0.3696 -0.85003567 0.099605978
0.52139997 -0.16986972 -0.27735263
0.1288 -1.2149734 0.38096371
0.3321 -0.937222 0.13969889
-3.0976 -0.98332536 1.1126778
0.46950001 -0.55920267 -0.21357161
0.1989 -1.1025435 0.41660193
0.3624 0.12513518 -0.88150471
0.047100008 0.66798115 -1.21137
0.403 0.064465493 -0.79721755
0.38910002 -0.81376112 -0.22035986
0.38800001 -0.46876377 -0.72502202
0.32789999 -0.41827634 -0.90278858
0.51200002 -0.17722362 0.37813532
0.551 -0.012043476 0.13969892
0.3655 -0.91784728 0.031794429
0.37279999 -0.8964926 0.092322737
0.4817 -0.41516501 -0.47923166
0.44819999 -0.5785774 0.40755093
0.2969 -0.56111193 -0.92188042
0.4312 -0.77593088 0.031158
0.4456 -0.6130842 0.39029753
0.38480002 0.2616069 -0.85520035
0.4526 -0.66682434 -0.32119328
0.40020001 -0.86615777 0.12138483
0.52079999 -0.14759585 -0.49804068
-0.015499994 0.75785434 -1.2882326
0.2669 -1.0818253 0.33153698
0.50190002 -0.41530648 -0.4404822
0.2103 0.54345965 -1.0912325
0.42559999 -0.79905331 -0.23506767
0.42910001 -0.81298327 0.068210378
0.31599998 -0.46430895 -0.9642362
0.1983 -1.1560715 0.448351
0.35339999 -0.94471729 0.26358399
0.36000001 -0.48057237 -0.87273651
0.26789999 -1.0705823 0.39680296
0.39930001 0.10887179 -0.89734393
0.48000002 -0.68733048 -0.13932541
0.48879999 0.056758016 -0.67128187
0.041600004 0.70043731 -1.2706962
0.53310001 -0.31871569 -0.41884476
0.52380002 -0.51479638 -0.22997653
0.41680002 0.15200526 -0.85760444
0.40290001 -0.43977237 -0.80478364
0.4777 -0.027882695 -0.72042578
0.53329998 -0.44217655 -0.30259639
0.2626 0.49912402 -1.0507154
0.3339 0.31994316 -0.99485391
0.36489999 0.26535445 -0.95370024
0.087200001 0.66189992 -1.2454526
0.47839999 -0.069248378 -0.73265868
0.42110002 0.197543 -0.85406893
0.30239999 -1.1118773 0.17915541
0.3874 0.051737577 -0.97583288
0.51020002 -0.46275333 0.44290629
0.2403 -1.235833 -0.10856628
0.4156 -0.91820085 0.06368494
0.48449999 -0.75033367 0.0055607259
0.41760001 0.28175935 -0.86715037
0.58460003 -0.089330241 0.29533312
0.30880001 -1.0532582 0.38598421
0.011000007 0.78019905 -1.2979906
0.25819999 -1.1376867 0.39715645
-3.1355999 -1.0251861 1.1484574
0.3971 0.10180077 -0.96211487
0.55110002 -0.099795401 -0.53339607
0.4438 -0.85746038 0.11268741
0.3436 -1.0124581 0.34447703
0.41240001 0.21020019 -0.91438514
0.3802 -0.98629522 0.19230765
0.61400002 -0.0089322329 -0.020814329
-0.063900009 0.84207082 -1.3580239
0.56110001 -0.23944902 0.41250071
0.38300002 -0.58586061 -0.83886617
0.4312 -0.51727128 -0.76391286
0.5887 -0.12928177 0.34136575
0.39700001 0.3514801 -0.9232946
0.53109998 -0.13790846 -0.64971513
0.5226 -0.092441529 -0.68485832
0.17290001 0.58157277 -1.2199967
0.4314 0.079951108 -0.9272545
0.55699998 -0.50921023 -0.29241407
0.3563 -0.62468088 -0.90102094
0.35589999 -0.57723403 -0.93333572
0.54769999 -0.5848707 -0.23923957
0.50959998 -0.62284231 0.38280225
0.52179998 -0.56747591 -0.45264447
0.63160002 -9.3370676e-05 0.049118519
0.45670003 -0.479936 -0.77225667
0.55699998 -0.45143965 -0.43928009
0.1225 -1.2949473 0.61296546
0.41930002 -0.95129335 0.23791605
0.46030003 0.179441 -0.88532299
0.2696 -1.1956695 0.36434674
0.59310001 -0.14321178 -0.49210101
0.3285 -1.1716985 -0.0018638372
0.44029999 0.12060979 -0.95334667
0.55699998 -0.51465499 -0.42061251
0.31110001 0.45457634 -1.1023343
0.55699998 -0.5903154 -0.3124252
0.2403 0.6178472 -1.1411543
0.25040001 0.54254043 -1.167671
0.58090001 -0.35131329 -0.48510069
0.48860002 -0.85258126 -0.18153971
-0.059 0.86957729 -1.39642
0.55699998 -0.49747226 -0.48248434
0.43599999 0.25404075 -0.95157903
0.1564 -1.2765625 0.61904657
0.1294 -1.3324946 0.58050931
0.39179999 -1.0094175 0.35190165
0.5492 -0.04987365 -0.71285969
0.53079998 -0.69963408 -0.3344869
0.65719998 -0.012750566 -0.050229967
0.39719999 0.33549955 -1.0139458
0.29710001 0.49671993 -1.135144
0.61559999 -0.18422395 -0.45519
0.11610001 0.71634734 -1.2946672
0.31909999 -1.1443336 0.39602515
0.47409999 -0.92760527 0.046077996
0.60189998 -0.064793676 -0.55651844
0.3468 -1.1791232 -0.055957496
0.25929999 -1.314817 -0.074978679
0.46530002 0.21720058 -0.92506248
0.52890003 0.057889342 -0.80450076
0.5553 -0.62743855 -0.40668249
0.41430002 -1.0206605 0.28988841
0.55140001 -0.62432718 0.38160014
0.55699998 -0.73117113 -0.11924362
0.67180002 -0.033680931 -0.10524291
0.50470001 -0.87930989 0.069766045
0.46240002 0.34242913 -0.90915257
0.1508 -1.3105743 0.63905764
0.3522 -1.1897298 0.018005848
0.4224 -0.60240692 -0.89260632
0.50559998 -0.87443089 0.12527391
0.034500003 0.8497076 -1.3426089
0.26590002 -1.3271207 0.04339093
0.3944 -1.1133623 0.14740634
0.34720001 -1.1977202 0.12965798
0.63840002 -0.22170064 -0.42124891
0.38 -1.1470913 0.12654671
0.55299997 0.031655729 -0.78576237
0.6803 -0.072501093 -0.17828703
0.25940001 -1.2313076 0.51849604
0.64389998 -0.28060263 -0.38073164
0.54460001 -0.80138671 0.11544515
0.67589998 -0.035448715 0.20468202
0.169 0.69152772 -1.2805958
0.537 -0.81736743 -0.2167536
0.40850002 -1.0949775 0.19223693
0.53200001 -0.83264089 0.16409406
0.4637 -0.42867085 -0.93043655
0.5984 -0.47194573 -0.48665631
0.52499998 0.20609894 -0.85074562
0.30309999 0.61098826 -1.1283557
0.48610002 -0.92463541 0.26782665
0.26910001 -1.3390707 0.12251627
0.47219998 0.037453979 -1.0051069
0.6627 -0.24171177 -0.33943665
0.55699998 -0.80301309 0.043108106
-0.042999998 0.90104353 -1.4256234
0.67379999 -0.1903758 -0.29305047
0.35680002 0.46822348 -1.117537
0.62370002 -0.26801613 -0.5551042
0.40039998 0.4069173 -1.0717871
0.57139999 -0.70649302 0.30876812
0.2432 -1.2439648 0.60398519
-0.0072000027 0.90761971 -1.3918943
0.1864 -1.3117764 0.6329059
0.4208 -1.0415909 0.39736858
-0.10379998 0.97253203 -1.4580796
0.41369998 -1.127363 0.17498353
0.44940001 -1.0473891 0.23529974
0.29210001 -1.2000536 0.56261945
0.45499998 0.42473641 -0.97250932
0.5248 -0.92541325 0.017298758
0.52090001 0.20051283 -0.91615289
0.59990001 -0.6205796 -0.41354144
0.66939998 -0.2055079 -0.43150192
0.11830001 -1.3720926 0.72235483
0.16620001 0.78698719 -1.2760704
0.56590003 0.17739037 -0.81694573
0.57889998 -0.80117464 0.12371828
0.39230001 -1.1008465 0.46383667
0.55849999 -0.85427833 0.1953482
0.70999998 -0.049378708 0.23812817
0.63209999 0.077405512 -0.6732617
0.2449 -1.4347423 0.049754977
0.27920002 -1.2636224 0.55505347
-0.12249999 1.009231 -1.4879904
0.72829998 -0.0055380762 0.0045000911
0.35659999 0.60186672 -1.1162641
0.27770001 -1.3975483 -0.027743936
0.41170001 -1.1640618 0.23968378
0.6415 -0.1504243 -0.64922017
0.54280001 -0.93941402 -0.045068085
0.28009999 0.69838667 -1.1966622
0.61150002 0.0061998665 -0.76992315
0.2132 -1.3414749 0.61211693
0.66299999 -0.38582009 -0.46841294
0.66290003 -0.32274619 -0.51508194
0.42550001 -1.1745269 0.11862713
0.60030001 -0.77105188 -0.26306909
0.51359999 0.27808243 -0.97689337
0.71340001 -0.22099352 -0.30966741
-0.16160001 1.0420406 -1.5200927
0.38999999 0.4931843 -1.1399522
0.38960001 -1.2548543 0.027410418
0.42019999 -1.2044376 -0.081837624
0.3545 -1.3093015 0.033491373
0.5733 -0.89571476 -0.13062802
0.38050002 -1.276209 -0.049947143
0.40060002 -1.2455912 -0.004904449
0.63139999 -0.021235883 -0.74984139
0.56730002 -0.92131209 -0.08084771
0.6785 -0.3407774 0.44255275
0.059100002 0.87233508 -1.4161482
0.43309999 -1.2006899 -0.012753308
0.57090002 -0.92088771 0.058735222
0.69749999 -0.32599887 -0.42612791
-0.27079999 1.0887096 -1.6029656
0.1136 -1.4147311 0.77362013
0.66509998 -0.44627774 0.44509831
0.671 0.038443923 -0.63727003
-0.022200003 0.97847176 -1.4452102
-0.064499989 0.98257279 -1.4906063
0.54229999 0.36802647 -0.92244619
0.21170001 0.73706543 -1.3217494
0.71810001 -0.21717519 -0.41686481
0.7033 -0.079855025 -0.5342446
0.2419 -1.3570312 0.59175229
0.45920002 0.51460958 -1.0415936
0.39380002 -1.2844821 0.047562897
0.67870003 -0.45129824 -0.48396927
0.39570001 0.6083014 -1.1183147
0.5977 -0.86099589 0.2098439
0.35970002 -1.342677 -0.0089349449
0.0876 -1.4423083 0.8164708
0.71950001 -0.30117944 -0.40130848
0.49830002 -1.029853 0.39765149
0.69779998 -0.0081543326 -0.59562141
0.6645 -0.56104112 0.41476345
0.58920002 0.069485992 -0.93121427
0.27610001 -1.4719361 0.01383388
0.3312 -1.3997405 -0.02088505
0.58240002 0.13029712 -0.94549781
0.29890001 -1.2968564 0.60851061
0.648 -0.72544348 0.28416082
0.6645 -0.64221704 -0.391904
0.2554 0.78331017 -1.2636251
0.42720002 -1.1760826 0.42183453
0.6279 -0.83051956 -0.20360142
0.68169999 0.090840548 -0.68118137
0.48830003 -1.0598342 0.4322997
0.62849998 0.09960869 -0.84395736
0.77359998 -0.016356826 0.15857866
0.56629997 0.2668395 -0.97102445
0.38050002 -1.3392829 -0.18175182
0.4127 -1.2952302 0.096353203
0.42229998 -1.2800273 -0.15756875
0.59789997 -0.012609154 -0.9556095
0.46310002 -1.1406566 0.40931875
0.7123 -0.24157032 -0.58253992
-0.11920001 1.0747796 -1.5330329
0.23010001 -1.3520108 0.73381007
0.6135 -0.9173522 0.069200367
0.30199999 -1.3354645 0.57343817
0.6516 0.076132745 -0.82684535
0.1071 0.93491399 -1.39345
0.75650001 -0.17326382 0.37502405
0.63810003 -0.86615777 -0.16796327
0.41619998 0.5463587 -1.1835101
0.4605 -1.2471468 -0.12016287
0.61659998 0.31718546 -0.87895912
0.62629998 -0.91834223 -0.086645961
0.75650001 -0.29799744 -0.39812648
0.61870003 0.14528781 -0.92782015
0.5844 -0.96380913 0.33160773
0.66189998 -0.82097363 -0.2131474
0.24690001 -1.3768302 0.70149523
0.68169999 -0.74326265 -0.29085839
0.3655 -1.4136704 -0.041461825
0.38099998 -1.3887802 0.08539319
0.55739999 -1.0588443 0.25750291
0.20480001 0.81329155 -1.3824191
0.8082 -0.067268506 -0.17149878
0.42650002 -1.1892347 0.57824647
0.3258 -1.4797143 -0.043866068
0.32389998 -1.367355 0.54366904
0.75369996 -0.34091884 0.44255275
0.45319998 0.53440869 -1.1756611
0.1919 -1.4143776 0.81074327
-0.1125 1.0866591 -1.5703683
