# .PCD v0.7 - Point Cloud Data file format
VERSION 0.7
FIELDS x y z
SIZE 4 4 4
TYPE F F F
COUNT 1 1 1
WIDTH 843
HEIGHT 1
VIEWPOINT 0 0 0 1 0 0 0
POINTS 843
DATA ascii
-0.50165665 -0.23710001 3.7466998
-0.47245482 -0.2466 3.7614789
-0.38592663 -0.24269998 3.7393501
-0.40895155 -0.2536 3.66327
-0.3742291 -0.2412 3.5752106
-0.3152025 -0.23929998 3.5942478
-0.48663238 -0.24430001 3.4745228
-0.38385144 -0.25669998 3.4477448
-0.20903483 -0.2299 3.5731356
-0.48676756 -0.25349998 3.3856888
-0.16471198 -0.27169999 3.5965052
-0.2737495 -0.23629999 3.4466467
-0.14667788 -0.22299999 3.5991414
-0.18964973 -0.2631 3.5087118
-0.59412181 -0.24989998 3.3519454
-0.23469868 -0.2622 3.4336846
-0.1294606 -0.2263 3.5269625
-0.26892355 -0.23550001 3.3800054
-0.12195947 -0.2335 3.4705548
-0.15035155 -0.2326 3.414778
-0.4877651 -0.37380001 3.256361
-0.37811533 -0.23809999 3.2372797
-0.55984342 -0.25259998 3.2087173
-0.23698989 -0.26370001 3.2701163
-0.35141185 -0.46549997 3.2425315
-0.5814085 -0.25209999 3.1763654
-0.039510749 -0.26429999 3.35956
-0.63360083 -0.2466 3.1517658
-0.38787749 -0.4014 3.1619713
0.072273947 -0.22439998 3.474577
-0.33614793 -0.38049999 3.1355693
-0.54641628 -0.25409999 3.098774
-0.20619348 -0.2658 3.1666572
-0.23834994 -0.23209998 3.1429605
-0.30109885 -0.32170001 3.1208763
0.10073874 -0.24309999 3.4658794
-0.26970974 -0.40470001 3.1310439
-0.2657434 -0.30609998 3.1053135
0.061727501 -0.23800001 3.3429101
-0.67559665 -0.2473 3.0716271
-0.16308537 -0.26769999 3.1317227
-0.035554431 -0.2658 3.2202129
-0.24007776 -0.28099999 3.094768
-0.289637 -0.26370001 3.073729
-0.46666732 -0.25759998 3.0361032
0.11720321 -0.26859999 3.3945968
-0.16146627 -0.22909999 3.1109271
-0.21801916 -0.26629999 3.0763745
-0.21666816 -0.33289999 3.0817144
-0.11051609 -0.22959998 3.1267753
0.089032032 -0.24219999 3.3104026
0.063261606 -0.23499998 3.2751672
-0.43002298 -0.2378 3.0091729
-0.23497632 -0.23100001 3.0454037
-0.0065759644 -0.23089999 3.1820047
0.15313599 -0.25 3.3610339
-0.64459181 -0.24529999 2.984329
0.084193923 -0.2374 3.2350228
-0.19676343 -0.22940001 3.0169904
0.18120143 -0.23859999 3.3434448
0.084300973 -0.23550001 3.1950083
-0.48589465 -0.2579 2.9382005
-0.14009777 -0.26890001 3.0183382
-0.52128363 -0.25669998 2.9323049
-0.1042768 -0.26859999 3.020982
0.090171434 -0.23519999 3.1651764
0.22179601 -0.2703 3.3345566
-0.092871688 -0.22819999 2.9945364
-0.72378165 -0.24959999 2.8995681
-0.55953395 -0.241 2.8548536
-0.30296168 -0.26519999 2.8696499
-0.07262852 -0.37740001 2.9667988
-0.61016375 -0.25479999 2.7883601
-0.32190904 -0.26530001 2.7928319
0.030057766 -0.36679998 2.9354563
-0.52817214 -0.2581 2.7585738
-0.60764539 -0.24160001 2.735522
0.40539822 -0.22659999 3.2853649
-0.25719675 -0.26809999 2.7461171
0.38731536 -0.23859999 3.2244449
-0.41268417 -0.26269999 2.7136049
0.085949518 -0.38530001 2.9022636
-0.012100123 -0.22679999 2.8272367
-0.13012889 -0.2254 2.7724051
-0.71840924 -0.24539998 2.7188735
-0.51424849 -0.25929999 2.6904905
-0.18884429 -0.2263 2.736907
-0.52622449 -0.23789999 2.6611471
-0.43131235 -0.2626 2.65554
-0.22819474 -0.26969999 2.6881499
-0.46413103 -0.23550001 2.6446962
-0.40837011 -0.4797 2.6712773
0.083775856 -0.26980001 2.8040988
-0.57859349 -0.25740001 2.6358414
-0.06307032 -0.2247 2.6759539
-0.63100588 -0.241 2.5896604
0.22080788 -0.36999997 2.8396451
-0.52024084 -0.2369 2.578711
0.1697354 -0.23339999 2.7851851
-0.28195193 -0.22830001 2.5934398
0.19722506 -0.38079998 2.8109987
-0.29665276 -0.465 2.6067772
-0.46077737 -0.39070001 2.5677047
-0.29588369 -0.39379999 2.5845094
-0.32741037 -0.32769999 2.5713034
-1.5907634 -0.41029999 3.2739115
-1.5796034 -0.39509997 3.2202411
-0.56212777 -0.259 2.5369608
-1.5487407 -0.40870002 3.1372972
-1.5155193 -0.40489998 3.0742383
-0.12940398 -0.27399999 2.5702605
0.28017053 -0.3202 2.7948644
0.053244807 -0.2719 2.6440177
-1.6447209 -0.4136 3.312454
-0.25778201 -0.4061 2.5311034
0.029939629 -0.27250001 2.6080518
-0.21140727 -0.2719 2.5222268
0.19235989 -0.26389998 2.6821718
-0.49309567 -0.26229998 2.4547279
-0.15749279 -0.40589997 2.5046093
-0.065572046 -0.2229 2.5208206
-1.7048 -0.41480002 3.2631941
-1.7227525 -0.39119998 3.2872996
-1.6063617 -0.41699997 3.0550947
-0.13084671 -0.49999997 2.4969616
-1.6048123 -0.41749999 3.024178
0.0089455023 -0.22329998 2.5172889
-0.11864873 -0.27500001 2.4702892
-1.5621406 -0.41809997 2.9580879
-0.14372638 -0.3418 2.4652534
0.19039205 -0.2683 2.6023633
-1.7737824 -0.39220002 3.3455138
-0.52382147 -0.2617 2.4041092
-0.72543919 -0.25419998 2.4158971
-1.7292591 -0.38969997 3.1826301
-1.7553005 -0.39019999 3.2369246
-0.1379635 -0.49939999 2.4530349
-0.062691711 -0.222 2.4434094
-0.099299215 -0.38750002 2.4396033
-0.073800407 -0.43740001 2.4389689
0.15366808 -0.22419998 2.5055556
0.42811611 -0.38589999 2.7047136
-1.4640497 -0.41239998 2.7359862
-0.27257642 -0.27129999 2.3562784
-1.841997 -0.39409998 3.3159618
0.065292336 -0.22279999 2.4386845
-0.87289858 -0.2493 2.37009
-0.80433565 -0.245 2.3524444
0.29198751 -0.24939999 2.5461321
-1.8964888 -0.39650002 3.3515797
-1.5813485 -0.38500002 2.7754188
-1.8836879 -0.41069999 3.2931514
-1.5099765 -0.42139998 2.6978388
-0.4764941 -0.26460001 2.2804828
0.061525263 -0.2748 2.3893595
-1.9331416 -0.4068 3.4462957
0.11428878 -0.22279999 2.4085486
0.061265148 -0.31099999 2.3783092
-0.10816332 -0.27669999 2.3180504
-1.8315746 -0.41489998 3.1134148
-1.7452451 -0.38609996 2.9491415
0.075997986 -0.4804 2.3916273
-1.4879653 -0.38369998 2.6353631
-1.8775307 -0.41230002 3.191216
-0.27491155 -0.22490001 2.263634
0.12370924 -0.42359999 2.3848655
-1.9916514 -0.4021 3.5209527
-0.70730644 -0.24039999 2.237304
-1.875734 -0.41370001 3.090528
-0.18217286 -0.22130001 2.2434621
-0.63325459 -0.2595 2.2155657
-1.3689843 -0.40000001 2.4806442
-1.9056729 -0.41230002 3.1246719
0.091441073 -0.22149998 2.3137755
-0.28705254 -0.22479999 2.2084053
0.14017162 -0.222 2.3269792
-2.0023711 -0.40019998 3.3587863
0.10644392 -0.27539998 2.3069611
0.11478219 -0.37979999 2.3160036
-2.0214601 -0.40159997 3.4117231
0.07586167 -0.27579999 2.2885911
-1.8718194 -0.39070001 2.9975085
0.066114761 -0.41529998 2.291909
-0.7836169 -0.25419998 2.1975305
-1.6555871 -0.38299999 2.6828339
-0.10206767 -0.21919999 2.2218084
-0.0040970668 -0.27699998 2.2372985
-1.9061726 -0.41370001 3.0208066
0.18216541 -0.4937 2.3287146
0.12014119 -0.4553 2.2910855
-1.6727768 -0.42309996 2.6748605
-1.7389287 -0.42270002 2.7408819
-0.099962197 -0.21880001 2.1904552
-0.66816467 -0.25889999 2.1444995
-2.0444107 -0.405 3.3077717
-0.27552125 -0.2238 2.148978
0.15756139 -0.27559999 2.2628992
-0.2787706 -0.27320001 2.13515
0.15530178 -0.4833 2.2707856
0.181802 -0.50820005 2.2860851
-1.7830147 -0.42179999 2.7401228
-0.7796759 -0.2419 2.1243565
-2.0218248 -0.39759997 3.1264915
0.3312858 -0.2529 2.3073986
0.22318992 -0.4226 2.2575712
-1.362597 -0.39299998 2.3273075
-2.1040099 -0.40269998 3.2911432
-0.67699349 -0.2378 2.0810077
-0.032721601 -0.2186 2.1321194
0.20812938 -0.47010002 2.2402856
-0.36662301 -0.27070001 2.068785
-0.91627324 -0.24680001 2.1139629
-1.7241148 -0.42459998 2.6025405
-0.70697278 -0.25819999 2.0726819
0.27257541 -0.4068 2.2563093
-1.6522382 -0.38070002 2.518434
-0.28157285 -0.22329998 2.0712965
0.12840346 -0.27680001 2.177196
-1.9791363 -0.3935 2.9360304
-1.437925 -0.37990001 2.3382356
0.30473652 -0.2613 2.2532139
-2.0942726 -0.40519997 3.1742084
0.25454071 -0.44649997 2.2312722
-1.3623652 -0.3899 2.2707088
-0.54287493 -0.2324 2.0277076
-1.70596 -0.38030002 2.5235851
-0.13573954 -0.2791 2.0638871
-1.4699043 -0.42649999 2.3264456
0.20454022 -0.2764 2.1640689
-1.6193925 -0.42630002 2.4267244
0.2804468 -0.26949999 2.1911428
-0.085121296 -0.2173 2.0525603
-1.7053841 -0.37979999 2.4913828
0.22500721 -0.22059998 2.1587188
-0.32321277 -0.40760002 2.009774
-1.3039695 -0.39830002 2.1926534
-0.42530558 -0.2277 1.990544
-2.0303557 -0.41129997 2.8903155
-0.97881854 -0.2484 2.0512309
-0.16614416 -0.27849999 2.0074248
-0.91980994 -0.24599999 2.024437
-0.35288903 -0.22499999 1.980373
0.19801077 -0.21989998 2.1127596
-0.24694625 -0.50839996 2.0062714
0.0063373223 -0.27919999 2.0401714
-0.049567126 -0.21719998 2.0231421
0.34497175 -0.37420002 2.1831036
-0.30705181 -0.22319999 1.9677655
-0.38477746 -0.271 1.9611408
-1.841328 -0.42239997 2.555321
-1.3534979 -0.33399999 2.1534677
-1.9665121 -0.38969997 2.6902962
0.23129103 -0.21989998 2.0880027
-1.2090001 -0.31200001 2.0745451
-0.50897598 -0.23019999 1.9274225
-0.18594429 -0.39939997 1.9619299
-0.38572374 -0.27129999 1.9297018
-1.6226072 -0.42779997 2.3231564
-0.26601645 -0.44820002 1.9520409
-2.0563016 -0.39430001 2.8073766
-1.1313683 -0.39079997 2.0378075
-1.7363678 -0.37829998 2.4051173
-0.99735081 -0.2484 1.9813325
-1.2673876 -0.39559999 2.084815
-1.6257346 -0.3082 2.2949398
-1.9078454 -0.41989997 2.5727093
-1.3216522 -0.34639999 2.1018262
-0.63190001 -0.26249999 1.9097117
-1.3733333 -0.42590001 2.1335118
-1.3905076 -0.18199998 2.1317649
-1.321421 -0.18059999 2.0952265
-1.6635717 -0.39210001 2.321404
-1.2799543 -0.1787 2.0732486
-1.8568636 -0.38329998 2.5010128
-1.4603232 -0.42849997 2.1800406
-1.4260826 -0.3091 2.1481473
-1.2609088 -0.44009998 2.0718367
-0.23982248 -0.43920001 1.9264102
-1.5114431 -0.2245 2.1956983
-0.26258388 -0.53170002 1.9345862
-1.1625656 -0.39210001 2.0233722
-1.5317011 -0.31329998 2.2090108
-1.2787652 -0.067099988 2.0729084
-1.6858627 -0.255 2.3209946
-1.5350312 -0.3777 2.2132428
-1.5001212 -0.46540001 2.2007084
-1.1606025 -0.34290001 2.0157723
-1.5281742 -0.45500001 2.2155192
-1.5578595 -0.213 2.2203028
-0.11674961 -0.2811 1.9301785
-1.1712699 -0.1512 2.0156958
-1.3313521 -0.2994 2.0850253
0.32222471 -0.26609999 2.0803044
-1.8232213 -0.4244 2.4516826
-1.2978643 -0.39720002 2.0734277
-1.9255472 -0.38640001 2.5584497
-1.8326621 -0.38179997 2.4541311
-1.1837674 -0.073899999 2.0224495
-1.7377678 -0.3687 2.3608923
-1.3884546 -0.36149999 2.1137211
-1.4043024 -0.46940002 2.1340714
-1.1274186 -0.17399999 1.9916486
-1.216772 -0.50489998 2.045084
-1.2572074 0.035700008 2.0618477
-2.0364313 -0.41379997 2.6957922
-1.5055889 -0.1938 2.1678386
-1.2475458 -0.31259999 2.0309818
-2.1003544 -0.39549997 2.7832742
-1.4727411 -0.50249994 2.1657326
-1.7742509 -0.28489998 2.3711016
-1.4762876 -0.11129999 2.1491895
-1.4207997 -0.1338 2.1144977
-1.0992185 -0.27869999 1.9680926
-1.520057 -0.59640002 2.211179
-1.5364296 -0.53059995 2.2056208
-1.0358642 -0.44030002 1.9562255
-1.0878483 -0.080299988 1.9671861
-0.30303982 -0.22220001 1.8771145
-0.23392901 -0.21970001 1.885018
0.20704719 -0.21869999 2.0028112
-1.4745564 -0.64499998 2.1869879
-1.3291464 -0.65559995 2.1068459
-0.92694902 -0.27309999 1.9114722
-1.3979803 -0.043599993 2.0998218
-1.4036599 -0.55879998 2.1223845
-1.6253703 0.048600003 2.2569709
-1.3260471 -0.2545 2.0480142
-1.1414723 -0.54700005 1.9971067
0.16072789 -0.2789 1.9767839
-1.3599644 -0.48050001 2.0800672
-1.415867 0.015300006 2.1108415
-1.3041147 -0.48630002 2.0514019
-1.6865414 -0.42520002 2.2828195
-1.0685909 -0.2617 1.9409412
-1.7023643 -0.012699991 2.2976129
-1.4536555 -0.63209999 2.1537898
-0.083233736 -0.40479997 1.9026299
0.041458286 -0.21669999 1.9274027
-0.99890411 -0.12709999 1.9166423
-2.1662014 -0.40729997 2.8454239
-1.0069135 -0.24879998 1.9145695
-0.9354651 -0.35660002 1.8987219
-1.704183 0.036400005 2.2986629
-1.7570482 -0.080299988 2.3262978
-1.8657337 -0.31380001 2.4226491
-1.1214896 -0.56480002 1.9777178
-1.5658318 -0.41950002 2.1792948
-1.6701276 0.1083 2.2808485
-2.0066352 -0.41620001 2.590601
-1.5640484 -0.70589995 2.2343836
-1.0408707 0.043400005 1.937754
-1.3198094 0.077800006 2.0504174
-1.6299022 -0.66390002 2.2643216
-0.84756744 -0.28650001 1.8665649
-1.4341131 0.148 2.1218379
-1.880402 -0.34669998 2.4238431
-1.3315396 -0.69859993 2.0819004
-1.1561656 -0.086300001 1.950857
0.49498841 -0.44079998 2.1207399
-1.4917603 0.28510001 2.18699
-0.64965206 -0.23429999 1.8311645
-1.8075709 -0.38399997 2.3451903
-1.2292618 -0.72350001 2.0340509
-1.40334 0.20410001 2.1023388
-1.3745817 0.197 2.0843496
-0.26369604 -0.27669999 1.83246
-1.6055678 0.27810001 2.2472699
-1.7004558 0.20820001 2.2973192
0.32341114 -0.26989999 1.9985595
-0.073191248 -0.36749998 1.865424
-1.2025657 0.30129999 2.02649
-0.80349487 -0.2624 1.8365008
-0.97457325 0.086100005 1.8987845
-1.1568575 0.081500009 1.9542588
-0.99593091 -0.35709998 1.8795919
-1.4779636 0.2665 2.1488869
-1.3642296 0.24529999 2.0776799
-1.1112949 0.047500007 1.9273757
-1.1808294 0.1392 1.9691381
-1.0608127 -0.04519999 1.8966132
-0.86060596 -0.20229998 1.8381816
-0.29412827 -0.22119999 1.8143498
-1.291104 0.23480001 2.0345371
-2.0298839 -0.3899 2.5533326
-1.6682862 0.24960001 2.2682383
-1.5306436 0.2976 2.1818421
-1.0294162 -0.078999996 1.8777937
-1.371261 -0.48459998 2.0195012
-1.7617954 0.2087 2.3270755
-1.9170052 -0.38799998 2.4126444
-1.7108194 -0.44399998 2.2261686
-1.8083798 -0.42029998 2.3055892
-1.0343454 0.0099000037 1.8822562
-1.1047924 0.1373 1.9252381
-1.4054177 -0.25709999 2.0117397
-0.50192761 -0.26839998 1.7888306
-0.059997283 -0.51359999 1.8590766
-0.81004941 -0.41929999 1.8213481
-0.61018056 -0.2525 1.7901312
-1.3406835 0.31810001 2.0646629
-0.88227391 0.025800005 1.8384517
-1.0157057 -0.2491 1.8509408
-1.7961819 -0.41339996 2.2789166
-1.3548087 -0.48779997 1.9927975
-2.1707132 -0.39699998 2.7180095
-1.4208633 -0.45049998 2.019387
-0.81665105 -0.44890001 1.8151137
-1.5600239 -0.46709999 2.0991542
-1.9265221 -0.414 2.3951607
-0.43864748 -0.2261 1.7742351
-0.26847813 -0.22 1.7863771
-0.99560356 0.078300007 1.8611587
-1.2711114 -0.47449997 1.9421655
-1.0620199 -0.23909998 1.8511223
-1.6266412 0.37920001 2.2417696
-1.2805842 -0.43069997 1.9373578
-0.87457883 0.063200004 1.8255798
-0.97958958 -0.47159997 1.839096
-0.91592419 -0.1611 1.8107678
-0.79411256 -0.092099994 1.7875518
-1.11247 0.3897 1.9615405
-1.0420437 0.29040003 1.9055223
-0.75961328 -0.25920001 1.771906
-0.8930459 -0.257 1.792594
0.52639371 -0.47980002 2.0565355
-1.6650324 -0.30699998 2.129874
-2.2373331 -0.40580001 2.7792203
-1.4488738 -0.56560004 2.0214715
-1.0930257 0.36140001 1.9354187
-1.4420031 0.53200001 2.1605721
-1.5986825 -0.29080001 2.077595
-0.97605574 -0.29010001 1.8054167
0.3293986 -0.22479999 1.92813
-0.85354239 -0.088199988 1.7782159
0.32750645 -0.273 1.9182528
-1.2876955 -0.32209998 1.9002407
-1.0571991 -0.47870001 1.8306721
-1.7890862 -0.42829999 2.2150066
-2.2690177 -0.40440002 2.8029406
-1.0380005 -0.24869999 1.8079252
-0.52918059 -0.229 1.7326273
-1.3768317 0.57280004 2.1222527
-1.4115832 0.5068 2.109061
-1.2347809 0.4689 2.0062914
-1.0276252 -0.2969 1.8008958
-1.195212 -0.28759998 1.8534271
-1.5254645 0.5298 2.1778126
-0.63612449 -0.39210001 1.7325948
-0.68938035 -0.39210001 1.7365531
0.38592669 -0.23679999 1.9264396
-1.8505983 -0.4251 2.2478647
-1.1804949 0.5187 1.9941175
-1.7139889 0.51160002 2.3054788
-1.1634102 -0.33069998 1.8309094
-1.227501 -0.58229995 1.8835007
-0.63015449 -0.3197 1.7223353
-1.4315847 0.55229998 2.1214173
-1.2762576 0.58950001 2.0594518
-1.1401141 -0.27739999 1.8174593
-1.5253524 0.61199999 2.2058072
-1.7900671 0.4887 2.3457077
-1.4391466 -0.61500001 1.9775196
0.13886693 -0.21610001 1.8111194
-0.87371898 -0.4689 1.7540692
-1.5255427 -0.47449997 1.9958771
-1.1246105 -0.3233 1.8033122
-0.76212251 -0.29459998 1.7181599
-1.5527633 -0.27919999 1.9887298
-1.8553071 -0.56330001 2.2433088
-1.3067671 -0.26839998 1.8624078
-0.64419997 -0.28239998 1.7018079
-1.6523718 -0.27059999 2.0400033
-0.60887825 -0.38530001 1.6953868
-0.59053451 -0.28369999 1.686759
-1.2074732 -0.2383 1.8073899
-0.14974084 -0.28200001 1.7134362
-0.7711699 -0.23749998 1.7002894
-1.1490946 -0.48630002 1.8007048
-1.5613242 0.63139999 2.1999018
0.29632559 -0.27950001 1.8406458
-0.52298117 -0.23800001 1.679165
-1.4236654 -0.25139999 1.8943343
-0.14646426 -0.2148 1.7083113
0.13266638 -0.30689999 1.7779799
-0.79257888 -0.30419999 1.6974078
-0.89190227 -0.24199998 1.7123748
-1.6391102 -0.2965 2.0153728
-1.008485 -0.56190002 1.7622478
0.098992802 -0.52059996 1.7812555
0.094254293 -0.45430002 1.767248
-0.84887135 -0.23479998 1.6963066
-1.4261326 0.71940005 2.1480608
-0.41284916 -0.24610001 1.6681191
-0.96134555 -0.47580001 1.7272955
-1.326615 0.69700003 2.0736301
-1.4668971 -0.48179999 1.9070543
-1.4810473 0.70360005 2.1527457
-1.2451053 -0.2462 1.7880094
0.16202465 -0.33129999 1.7610298
-1.427822 -0.23409998 1.8661345
0.12279031 -0.42700002 1.752274
0.21791759 -0.42200002 1.7838392
-1.547243 0.75269997 2.2172911
-1.4294271 0.76390004 2.1491544
-0.47779718 -0.27149999 1.6452259
-0.048789941 -0.28349999 1.6934882
-0.9814204 -0.24509999 1.6981248
-1.6082224 -0.289 1.9574716
-2.0218325 -0.324 2.2918785
-0.85483932 -0.46040002 1.6819698
-1.7660328 0.67299998 2.3281362
-1.3069226 -0.48630002 1.8135383
-1.1666912 -0.48319998 1.7598265
-1.8729094 -0.2651 2.1426203
-0.63241339 -0.23179999 1.6384226
-2.1104898 -0.4747 2.3957193
-1.9043227 -0.42279997 2.1716111
-1.6053008 0.77760005 2.2487321
-0.89006507 -0.33750001 1.665357
-0.55147851 -0.2288 1.627606
-0.8849225 -0.23209998 1.6614641
-0.96818006 -0.47370002 1.6910578
-1.1911916 -0.23899999 1.7367905
-0.12528953 -0.2834 1.6557871
0.30796656 -0.2168 1.7808087
-1.6749142 -0.23229998 1.9719583
-1.246156 -0.23370001 1.7525893
-0.50204235 -0.28290001 1.6182321
-0.024913751 -0.2836 1.671043
0.14701167 -0.215 1.7154266
-1.4938812 -0.22679999 1.8583168
-1.2721876 -0.67970002 1.8063012
-0.96090341 -0.2351 1.6622614
0.31167424 -0.28029999 1.7694306
-1.3515373 -0.68480003 1.8360635
-1.6820217 0.79320002 2.2894475
-0.81842685 -0.2308 1.628038
-0.49852684 -0.2297 1.5999211
-0.79594386 -0.36990002 1.6241797
0.44481295 -0.2441 1.8192335
-1.1668729 -0.23589998 1.7023119
-1.6178087 -0.46619996 1.9216679
-0.55427384 -0.2974 1.5959646
-1.8842971 -0.43209997 2.108896
-1.3943092 -0.2667 1.7877806
-1.6056901 -0.31470001 1.8966579
-1.8243812 -0.44170001 2.0546737
-0.43572149 -0.2728 1.590103
-0.97062755 -0.3396 1.6428187
-0.1458075 -0.2139 1.616249
-1.2510206 -0.69009995 1.7715636
-1.7172265 0.81060004 2.2970712
-1.3355676 -0.26729998 1.7483238
0.26515496 -0.53279996 1.7430568
-0.37973464 -0.22209999 1.5838753
-1.4540714 -0.70009995 1.8542696
-1.7238715 0.83930004 2.3117619
-1.4371252 -0.29080001 1.788021
-1.0385391 -0.34599999 1.6451925
-2.1136451 -0.2861 2.2916548
-1.630783 -0.40709999 1.8965961
-1.6234274 0.88960004 2.2587357
-1.8913629 -0.42160001 2.0792582
0.26308843 -0.46180001 1.7190773
-0.78406215 -0.3263 1.5877594
-1.4457054 -0.3461 1.7831597
-1.9999264 -0.24489999 2.1612208
-1.1789999 -0.24939999 1.6697072
-1.4298776 -0.37319997 1.772174
-0.57958794 -0.2209 1.5601193
-0.30776116 -0.23899999 1.563337
-1.2838227 -0.30599999 1.6975487
-1.4293931 -0.43139997 1.7668136
-0.70438105 -0.37259999 1.5627711
-2.1686969 -0.48520002 2.3351016
-0.7604928 -0.45659998 1.5743827
-0.68421388 -0.49520001 1.5681016
-0.094340675 -0.28509998 1.5809921
-1.4479299 -0.46510002 1.7655069
-0.72795892 -0.32639998 1.5491328
-1.8259127 -0.21880001 1.9754215
-0.69928288 -0.55900002 1.5656012
-0.37334567 -0.35639998 1.5395411
-0.55776358 -0.23199999 1.5281199
-1.2052598 -0.48190001 1.6554235
-1.0241284 -0.2344 1.5889524
-1.268497 -0.51039994 1.6796937
-1.6971016 -0.70850003 1.9307283
-1.1376108 -0.27250001 1.6135951
-1.1184411 -0.44859996 1.6149982
-2.0574274 -0.68809998 2.2146261
-0.69348717 -0.58790004 1.55244
-0.55576575 -0.26909998 1.5143803
-1.5949007 -0.2254 1.7987455
-0.908391 -0.6839 1.5944155
-1.742301 0.95060003 2.3122408
0.047412492 -0.21269998 1.5765158
-0.61680627 -0.26699999 1.5110551
-0.45848861 -0.23299998 1.5078694
-1.5309892 -0.36249998 1.7588439
-2.1117995 -0.68569994 2.2492509
-1.0899144 -0.29139999 1.5812079
-1.3781466 -0.51450002 1.6987749
0.31541899 -0.45039997 1.6661166
-1.4073954 -0.46229997 1.7041147
-1.3302209 -0.2234 1.6537845
-0.71632266 -0.45079997 1.5160874
-1.300668 -0.22389999 1.6415719
-1.238959 -0.71510005 1.672455
-0.92753613 -0.24289998 1.5344551
-1.0545502 -0.26839998 1.5620605
-2.2017469 -0.42160001 2.2778573
-1.0202122 -0.46220002 1.5631355
-1.8447289 -0.22749999 1.9336308
-2.2592523 -0.58039999 2.3692551
-0.13535836 -0.21259999 1.5171473
-0.14801246 -0.2552 1.5138298
-1.1009008 -0.41260001 1.573579
-1.2406045 -0.54939997 1.6316048
-0.42813221 -0.3075 1.4866482
-0.91766262 -0.46059999 1.5317568
-1.6095027 1.0362 2.2354543
-1.1709015 -0.2462 1.5747341
-0.46314362 -0.22999999 1.4736066
-1.0847691 -0.58140004 1.5751195
0.48895305 -0.24950001 1.6984864
-0.88122541 -0.2202 1.5028677
-1.0556755 -0.3687 1.5433112
-1.2296677 -0.25139999 1.5891482
0.3343665 -0.28169999 1.6287346
-0.44115785 -0.42950001 1.4778872
0.028568454 -0.2121 1.5312768
-1.8478993 -0.70910001 1.9681393
0.31811512 -0.215 1.6169864
-0.96180725 -0.55760002 1.5344959
-2.2224717 -0.2572 2.2475607
-1.614926 -0.37139997 1.758461
-2.2205946 -0.66929996 2.3042121
0.22452152 -0.28299999 1.5788776
-0.13303596 -0.28479999 1.4871699
-0.27458346 -0.3312 1.4682025
-0.97570598 -0.71529996 1.5552223
-0.9958905 -0.60070002 1.5376618
-0.98905575 -0.41309997 1.5127002
0.37984604 -0.38240001 1.6333076
-1.2220521 -0.44869998 1.5779387
-0.84564352 -0.21700001 1.4768974
-1.1802988 -0.37649998 1.5562574
-1.2095472 -0.7234 1.6145976
-0.37217456 -0.23109999 1.4515697
-1.5011566 -0.23229998 1.6729153
-2.4184225 -0.49819997 2.4985642
-0.84705567 -0.52549994 1.4884514
-1.3781494 -0.26449999 1.6173701
-0.17898372 -0.2137 1.466586
-2.1209517 -0.6997 2.1743989
-2.2703919 -0.26389998 2.2687612
-2.3829811 -0.58599997 2.4605505
-0.20490259 -0.2825 1.4564933
-2.210736 -0.24289998 2.1922877
-0.5016644 -0.22569999 1.4356867
-0.92754471 -0.36480001 1.4768404
-2.4505754 -0.44289997 2.5174739
-2.428041 -0.52970004 2.4973047
-0.67752242 -0.20899999 1.4384915
-0.74831676 -0.69169998 1.4898723
-0.71509773 -0.35059997 1.4402093
-0.39745086 -0.22130001 1.4297899
-0.56762356 -0.2274 1.4280421
-0.6600824 -0.23539999 1.4274987
-2.2689772 -0.62779999 2.2856112
-1.0258977 -0.3712 1.4840878
-1.886533 -0.3364 1.879824
-2.3318155 -0.64740002 2.3687718
-0.096283697 -0.241 1.4538265
-0.64525795 -0.3459 1.4251752
0.29092366 -0.2141 1.5550895
-1.0933909 -0.72660005 1.5441861
-1.3731014 -0.23519999 1.5783135
-1.7974931 -0.69749999 1.8562452
-0.45626143 -0.22319999 1.4091269
-1.6259965 -0.2872 1.695686
-0.032465778 -0.24700001 1.4541626
0.30801934 -0.28279999 1.5503
-2.2442701 -0.6825 2.2464051
-0.814385 -0.71650004 1.4744388
-0.86532938 -0.36340001 1.4348004
-1.4869351 -0.24939999 1.6187476
-0.83599138 -0.34119999 1.4272152
-1.212629 -0.23749998 1.5102599
-0.15897831 -0.28040001 1.4244363
-2.4987886 -0.3766 2.5173662
-2.4026699 -0.31439999 2.3676484
-0.90933383 -0.72529995 1.4801826
-0.66117835 -0.44390002 1.4070004
-1.1626251 -0.7148 1.5364693
-0.46901849 -0.4147 1.3966312
-0.97955489 -0.72979999 1.4903562
-2.3327107 -0.63 2.3098216
-2.0999396 -0.69710004 2.0713925
-2.4596946 -0.3242 2.4304786
0.26143903 -0.21340001 1.5102206
-2.2561469 -0.48899999 2.1836338
-0.31160426 -0.27919999 1.3910805
-1.8937021 -0.3204 1.8380061
-2.2144406 -0.69389999 2.1820712
-2.0505872 -0.2683 1.9568739
-1.1397835 -0.46589997 1.4766319
-2.1830161 -0.69649994 2.1361001
-2.002223 -0.69050002 1.9602431
-0.82827121 -0.24109998 1.3893871
-0.71926409 -0.41349998 1.3819929
-2.4027848 -0.64839995 2.3724492
-0.45137879 -0.20739999 1.3635839
-1.4992033 -0.67659998 1.6240985
-0.32591408 -0.2103 1.3668952
-0.60495746 -0.23859999 1.3613777
-1.8315771 -0.3057 1.7646104
-0.93665874 -0.24160001 1.3966545
-1.4724234 -0.39650002 1.5656824
-0.49583152 -0.4287 1.3611895
-1.5737792 -0.40019998 1.6117293
-1.2390296 -0.38719997 1.4727324
-2.0197077 -0.29299998 1.8943586
-0.63016826 -0.34939998 1.3571115
-1.7465622 -0.3195 1.6978601
-1.5247588 -0.27539998 1.5730351
-0.4647111 -0.63530004 1.3750919
-0.93103147 -0.428 1.3874011
-0.22702008 -0.227 1.3529845
-0.30182448 -0.22760001 1.3450196
-1.0522293 -0.56429994 1.4230802
0.0050991252 -0.26339999 1.3888268
-0.66510826 -0.25529999 1.3377934
-0.85671544 -0.24469998 1.3581202
-1.5824472 -0.64339995 1.6233157
-1.9872984 -0.65699995 1.8856931
-1.8580565 -0.40949997 1.7511464
-1.8790959 -0.30989999 1.7589055
-1.8700098 -0.63020003 1.7826427
-1.0302187 -0.37960002 1.3800038
-2.244195 -0.2881 2.0543351
-0.55052865 -0.26710001 1.3172514
-1.8514574 -0.37920001 1.7289765
-0.61525631 -0.2836 1.3159395
-0.51551569 -0.69749999 1.3556955
-1.5437104 -0.27629998 1.5454098
-1.1840208 -0.24269998 1.4084105
-0.60668534 -0.20479998 1.313185
-0.46308318 -0.28560001 1.3089113
-0.60383546 -0.68299997 1.348721
-2.5490561 -0.3087 2.4181008
-1.4913125 -0.61479998 1.5465658
-2.2910969 -0.59000003 2.1230986
-0.79303569 -0.21340001 1.3218167
-1.4562938 -0.61989999 1.53062
-0.95831144 -0.37689999 1.3501506
-0.46186092 -0.41819999 1.3076283
-2.0423615 -0.62619996 1.8849212
-0.59332728 -0.35050002 1.2991219
-0.45767978 -0.48669997 1.3078701
-0.1346415 -0.2159 1.321589
-0.35923561 -0.4136 1.3043805
-2.4906003 -0.64670002 2.3701487
0.52350026 -0.39699998 1.520924
-1.8567255 -0.50940001 1.7158523
-1.354031 -0.35870001 1.4459442
-1.5674428 -0.44799998 1.5389044
-1.608078 -0.51900005 1.5665221
-2.5184894 -0.29929999 2.3354435
-1.9749292 -0.57000005 1.7999167
-0.65909255 -0.73119998 1.335013
-0.58516103 -0.26280001 1.2806661
-2.0711334 -0.42130002 1.8496866
-1.4796778 -0.44060001 1.4881178
-2.5641165 -0.30680001 2.3896146
-0.38515732 -0.41459998 1.2852827
0.084131606 -0.2401 1.3463151
-2.0364919 -0.32429999 1.8102874
-0.22185662 -0.21349999 1.2897279
-0.84010857 -0.25369999 1.293684
-1.1288341 -0.66550004 1.3895967
-0.47048202 -0.20299998 1.2684962
-0.24185777 -0.3197 1.2826849
-2.3398621 -0.5733 2.1160347
0.57837832 -0.39430001 1.5163755
-0.32422885 -0.3378 1.2718141
-0.89386082 -0.71490002 1.3393825
0.37730554 -0.28389999 1.4193072
-1.1178429 -0.38939998 1.3398341
-2.2909369 -0.35440001 2.0197759
-1.5919255 -0.26350001 1.5086991
-0.94012964 -0.27739999 1.2940426
-0.82043409 -0.65639997 1.3109615
-2.4812 -0.62639999 2.2834306
-2.1767938 -0.35050002 1.903877
0.53966832 -0.24950001 1.4805279
-1.242684 -0.58860004 1.3902029
-0.11431553 -0.28749999 1.2817945
-0.30451739 -0.2254 1.2583553
-0.9122417 -0.2186 1.2839459
-2.2208941 -0.41599998 1.9416935
-0.30899012 -0.54540002 1.2734083
-2.1973186 -0.56210005 1.938128
-1.7356664 -0.41519997 1.5793326
-1.9300424 -0.41840002 1.7020633
-0.59162861 -0.35419998 1.2460642
-0.41443959 -0.59959996 1.2691644
0.57459575 -0.41800001 1.491424
-0.90906847 -0.51800001 1.289042
-1.2234402 -0.4323 1.3525343
-0.79408014 -0.2613 1.2544078
-0.60504079 -0.20409998 1.2368336
-0.40564778 -0.33930001 1.2379923
-2.2253444 -0.37990001 1.9227855
-1.2363449 -0.50240004 1.3569826
-2.5105085 -0.63950002 2.2892666
-2.5577662 -0.31639999 2.2976139
0.17690855 -0.2471 1.3208095
-2.1115184 -0.4172 1.816538
-0.416527 -0.38119999 1.232149
-0.27311015 -0.40269998 1.2419543
-1.3373951 -0.25049999 1.3685585
-0.35466129 -0.51499999 1.2425034
-1.0725673 -0.39000002 1.2902538
0.0068570748 -0.2089 1.2710717
-0.86970121 -0.46070001 1.2552282
-1.5604736 -0.41279998 1.4549755
-0.90727937 -0.29639998 1.247941
-2.3590407 -0.53960001 2.0458167
-2.1864636 -0.40659997 1.8577291
-0.34696189 -0.54729998 1.2334393
0.44095409 -0.27509999 1.3899498
-0.97398365 -0.33849999 1.2540057
-1.2293167 -0.24379998 1.3113556
-0.38894543 -0.72089994 1.2535217
-0.27053267 -0.59909999 1.2386186
-2.5107634 -0.36539999 2.1902251
-0.22333762 -0.3924 1.2217629
0.59679061 -0.46199998 1.4618666
-2.3455672 -0.3662 1.9963531
-0.15569279 -0.38890001 1.229127
-2.0828006 -0.27269998 1.7448786
