# .PCD v0.7 - Point Cloud Data file format
VERSION 0.7
FIELDS x y z
SIZE 4 4 4
TYPE F F F
COUNT 1 1 1
WIDTH 259
HEIGHT 1
VIEWPOINT 0 0 0 1 0 0 0
POINTS 259
DATA ascii
0.28935534 -0.49889997 -1.0027944
0.22964084 -0.50319993 -1.0310545
0.3387773 -0.47849998 -1.0674587
0.27889436 -0.4901 -1.0926428
0.24214399 -0.46729997 -0.92156208
0.20159328 -0.45119998 -0.99950469
0.25137216 -0.56159997 -0.92278302
0.31917399 -0.52839994 -1.1066502
0.3230949 -0.59010005 -1.0584995
0.23808759 -0.40290001 -1.036707
0.20588762 -0.47389999 -0.92908049
0.26257896 -0.59630001 -0.9479109
0.39950097 -0.52779996 -1.047297
0.17490536 -0.55519998 -1.0385637
0.38818711 -0.42120001 -1.0861222
0.24591649 -0.62709999 -0.93126452
0.32932055 -0.4154 -0.88037437
0.18588996 -0.3942 -1.0488272
0.16249156 -0.53629994 -1.0824752
0.19602901 -0.61109996 -1.0598553
0.12822086 -0.46959999 -0.99753368
0.15761328 -0.60049999 -0.95235133
0.20474607 -0.57539999 -1.1348076
0.40319693 -0.44930002 -1.1317214
0.20867205 -0.4998 -0.83209044
0.35877734 -0.54439998 -1.1734419
0.12006286 -0.40849999 -0.98563635
0.46514666 -0.55700004 -1.0562321
0.43915737 -0.47059998 -1.1206985
0.10946739 -0.58150005 -0.98295569
0.099447131 -0.43710002 -0.9925617
0.47980177 -0.45149997 -1.0502865
0.13788927 -0.37100002 -0.95709836
0.40536356 -0.48910001 -1.1741421
0.095849156 -0.55050004 -1.0711305
0.093492687 -0.57140005 -1.0384245
0.29277903 -0.69550002 -0.92003155
0.11836851 -0.36939999 -1.0067631
0.096121967 -0.58720005 -1.0753419
0.096163154 -0.41139999 -1.0797156
0.50329345 -0.53939998 -1.0627552
0.13034242 -0.40089998 -1.1323503
0.074032992 -0.45949998 -1.0693146
0.29650956 -0.69330001 -0.87814295
0.064051569 -0.48770002 -0.94164169
0.2079981 -0.37780002 -0.81806034
0.21681827 -0.59640002 -1.2166473
0.17764997 -0.51230001 -0.78112936
0.49505591 -0.4804 -1.145177
0.10285875 -0.42289999 -1.1563423
0.39185393 -0.69570005 -0.87759095
0.045814395 -0.58130002 -1.0157
0.051502585 -0.49490002 -0.8878454
0.40562385 -0.72759998 -0.92215919
0.10082659 -0.38240001 -1.164412
0.049603045 -0.36239997 -1.0166727
0.22139156 -0.68540001 -1.1953174
0.55115265 -0.55729997 -0.92954218
0.52489543 -0.61010003 -0.89993274
0.51795638 -0.55709994 -1.1540891
0.289204 -0.77810001 -0.95585501
0.13951325 -0.51479995 -0.76303202
0.37550902 -0.76230001 -0.93746221
0.045850158 -0.63469994 -1.0644468
0.34481227 -0.60019994 -1.2670388
0.19609109 -0.37819996 -0.75716758
0.41542572 -0.73150003 -0.88327038
0.0026451349 -0.52709997 -1.0503298
0.55519402 -0.54970002 -1.1225766
0.28636271 -0.3856 -0.72779691
0.16502938 -0.71239996 -1.1694371
-0.0064983666 -0.4736 -1.0330801
0.57564205 -0.54900002 -1.0757154
0.012806296 -0.39439997 -1.0537462
-0.0030863285 -0.58700001 -0.99184608
0.25117856 -0.80190003 -0.98895478
0.019729495 -0.64059997 -0.93443584
0.36060703 -0.67620003 -1.250023
0.27023709 -0.74899995 -1.1970253
0.57453275 -0.46430001 -1.1378669
0.060492992 -0.3669 -1.1789287
0.064152837 -0.41410002 -1.2111539
0.37161601 -0.80760002 -0.97739291
0.60966069 -0.48959997 -1.0140864
-0.02139008 -0.4869 -0.92058504
0.38901472 -0.61989999 -1.2887442
0.28590339 -0.82710004 -1.048286
0.24295992 -0.82420003 -0.95724595
-0.024672806 -0.39970002 -1.058409
0.61392158 -0.53250003 -1.0786065
0.024332494 -0.37350002 -0.83461869
0.28057957 -0.82630002 -1.088269
-0.026708186 -0.61329997 -0.95995975
0.29545116 -0.38649997 -0.68258822
-0.019998342 -0.6401 -1.0140465
0.23393494 -0.52999997 -0.66808569
-0.019373387 -0.35809997 -1.0508137
-0.04912284 -0.48239997 -0.94483781
0.10416096 -0.78779995 -1.0648789
-0.0044803321 -0.35639998 -1.1316276
0.60449553 -0.6322 -0.90401721
0.46734065 -0.80270004 -0.92055178
0.40523428 -0.84010005 -0.95316255
-0.074680105 -0.50940001 -1.0333444
-0.031480283 -0.65740001 -1.0935608
0.28239751 -0.86629999 -1.0399506
-0.019872367 -0.50129998 -0.7956506
0.30282784 -0.78530002 -1.2402411
0.028911799 -0.76590002 -0.9808352
0.02656576 -0.36179999 -1.2308258
0.025620461 -0.3795 -0.76569521
0.50368589 -0.58229995 -1.3012466
0.58530581 -0.60839999 -1.2092217
0.63163465 -0.61930001 -1.1094509
0.0074510276 -0.42029998 -1.2424836
-0.045304596 -0.49609998 -0.82528448
0.65309805 -0.50399995 -1.1155709
0.35355383 -0.7658 -1.2675648
-0.00031515956 -0.73239994 -1.0907295
-0.021891892 -0.37740001 -0.81113505
0.63732046 -0.50969994 -1.1728007
0.062848926 -0.38299999 -0.70889699
0.65924996 -0.61849999 -0.99084437
0.65099925 -0.46589997 -1.1447498
0.60459858 -0.54480004 -1.227652
-0.094841152 -0.5654 -0.97779965
0.60117018 -0.72689998 -1.0691485
-0.036595821 -0.70449996 -1.0903233
0.38724035 -0.76960003 -1.2763478
0.32910097 -0.85539997 -1.1753172
-0.040203184 -0.71449995 -0.9351393
-0.079188496 -0.64069998 -0.93913019
0.5613929 -0.55449998 -1.2924334
-0.11075854 -0.53250003 -1.0289121
0.35763454 -0.88 -1.120032
0.31660086 -0.53960001 -0.59949851
0.55315077 -0.79820001 -0.9251219
0.66079062 -0.64979994 -1.0719439
0.39477223 -0.3971 -0.61917174
0.37141049 -0.86890006 -1.1657182
-0.080718845 -0.4506 -1.1810397
-0.044225872 -0.74310005 -0.9591049
-0.11700572 -0.40830001 -0.96932185
0.68943393 -0.61539996 -0.97169483
0.70047218 -0.47519997 -1.0760977
0.50532836 -0.65960002 -1.3241802
0.670744 -0.6516 -0.9152925
-0.0918556 -0.35330001 -1.1186581
0.1853705 -0.38789997 -0.60489255
-0.10798639 -0.48929998 -0.84388244
0.56956255 -0.69309998 -1.262802
0.67133367 -0.47569999 -1.1975834
0.48687631 -0.87980008 -1.0199543
0.4262926 -0.88890004 -1.1285843
0.58704692 -0.65549994 -1.2742115
-0.053063765 -0.34779999 -1.2228775
0.63465738 -0.73210001 -1.1429852
0.47254831 -0.89489996 -1.0856644
0.66606933 -0.722 -0.91588986
-0.13724226 -0.484 -0.87101442
0.65968043 -0.50370002 -1.2533065
0.59405786 -0.82570004 -0.95284665
0.084605724 -0.39030001 -0.61718166
0.68279594 -0.71850002 -1.018554
0.70755273 -0.52520001 -1.1712731
-0.093152121 -0.73570001 -1.0430847
0.48468405 -0.78960001 -1.2921081
0.01829204 -0.52149999 -0.63737309
0.745076 -0.50670004 -1.0269971
0.67170596 -0.74839997 -1.0002502
0.57420945 -0.80639994 -1.1880738
-0.14651406 -0.45399997 -1.1389754
0.47812837 -0.85940003 -1.2215985
-0.16495965 -0.41190001 -1.0057484
0.5237996 -0.49990001 -0.6015088
0.63608223 -0.66170001 -1.2662046
-0.092766255 -0.49539998 -0.73568159
0.65372723 -0.68939996 -1.2254496
0.56406361 -0.68079996 -1.3354508
-0.17634268 -0.4621 -1.0466937
0.68411297 -0.73520005 -1.1164702
0.62063694 -0.66970003 -1.2967873
0.63510638 -0.82169998 -1.0811235
0.73616987 -0.47599998 -1.1754053
0.50101888 -0.41279998 -0.57809728
0.71920377 -0.48969999 -1.2244035
0.55408037 -0.75249994 -1.3200837
0.6675092 -0.78470004 -1.1058254
0.57648879 -0.71710002 -1.3323613
0.7573151 -0.50839996 -1.1435938
0.66314143 -0.75279999 -1.1893356
-0.019838125 -0.39540002 -0.62557268
0.10739559 -0.5388 -0.53976285
0.59919256 -0.88820004 -1.0521468
0.63926744 -0.83109999 -1.1352686
0.74787253 -0.64559996 -1.1407102
-0.05533056 -0.3484 -1.3347839
0.62706929 -0.79489994 -1.2297863
0.47705376 -0.53419995 -0.53548843
-0.11247586 -0.42789999 -1.3012513
0.54738265 -0.5072 -0.5622068
-0.20051454 -0.45019999 -1.1417403
-0.1102971 -0.50569999 -0.68192065
0.57616323 -0.47230002 -0.57520187
0.66916209 -0.84819996 -0.9945215
-0.16023648 -0.3906 -0.77049446
0.66101372 -0.84749997 -1.0937135
-0.17660916 -0.34810001 -1.1714426
-0.22964913 -0.45519999 -1.0000281
0.79707438 -0.48230001 -1.1236957
-0.21520366 -0.64030004 -0.98663318
0.70568246 -0.81579995 -0.96938121
-0.16680928 -0.48520002 -0.74384826
0.80261964 -0.61849999 -1.009321
-0.23424099 -0.45659998 -1.0548639
-0.16254273 -0.52310002 -0.72368276
-0.09202832 -0.51300001 -0.62726259
0.39522189 -0.55830002 -0.47841141
0.77470666 -0.4984 -1.2367287
0.7906037 -0.69700003 -0.99857104
-0.25047401 -0.54489994 -1.0029565
0.61568141 -0.86670005 -1.2362064
0.62581092 -0.80299997 -1.3042998
-0.2510426 -0.55519998 -0.95492816
0.75836521 -0.52670002 -1.2804552
0.69376296 -0.74459994 -1.2759691
0.36397964 -0.3964 -0.46843466
0.6458829 -0.89680004 -1.1363335
0.31522501 -0.56169999 -0.45354226
-0.11395487 -0.40809998 -1.3712581
0.72077423 -0.83150005 -1.1043524
0.28586155 -0.39720002 -0.45709738
-0.26571596 -0.45500001 -0.95406687
-0.062729418 -0.40379998 -0.57627571
-0.26663864 -0.42029998 -0.98406243
-0.27087528 -0.44930002 -1.0938953
0.77688104 -0.7938 -1.0435718
-0.26114273 -0.47419998 -0.84865975
-0.010965943 -0.40529999 -0.52457893
-0.25051993 -0.35679999 -1.1304859
-0.28253335 -0.51359999 -0.94866467
0.42377698 -0.39989999 -0.45237437
-0.28416672 -0.45399997 -1.0333678
0.52686971 -0.54159999 -0.47583261
0.026757598 -0.5381 -0.48685649
0.67942542 -0.79260004 -1.3163936
0.82988673 -0.50319993 -1.2186357
0.6914643 -0.89190006 -1.1600083
-0.29178479 -0.56439996 -0.98846269
0.60998529 -0.43530002 -0.51699072
0.86537701 -0.6099 -0.99317324
-0.28203249 -0.36999997 -1.0512094
0.13045496 -0.40440002 -0.44238779
0.22873241 -0.56120002 -0.41483489
0.56764072 -0.41919997 -0.48302165
0.079264909 -0.40650001 -0.45224854
-0.29687467 -0.60950005 -0.96146882
0.35953444 -0.43829998 -0.41129467
0.34035987 -0.56929994 -0.41004607
