# .PCD v0.7 - Point Cloud Data file format
VERSION 0.7
FIELDS x y z
SIZE 4 4 4
TYPE F F F
COUNT 1 1 1
WIDTH 1539
HEIGHT 1
VIEWPOINT 0 0 0 1 0 0 0
POINTS 1539
DATA ascii
1.7013 0.028899999 -0.1183
-0.359 -0.45199999 0.43090001
-0.74669999 -0.43619999 0.42550001
-2.4675 -0.62540001 -0.6814
-0.67400002 -0.71490002 0.25920001
-1.4146 -0.48159999 -2.2074001
-0.53750002 -0.64889997 -1.7456
0.1693 -0.15099999 -0.085600004
2.3926001 -0.43270001 -0.28670001
0.5697 -0.50669998 0.47150001
-1.6626 -0.5934 -0.38710001
-1.2697001 -0.57059997 -0.35139999
-2.7922001 -0.59119999 0.033399999
-2.0785999 -0.50709999 -0.66070002
-1.5889 -0.5061 -0.22930001
-2.0806 -0.40009999 -0.13060001
0.45770001 -0.1714 -0.14839999
-2.0481 -0.38229999 0.34509999
-1.6795 -0.62159997 0.74980003
-1.2781 -0.59100002 -1.7313
-1.6306 -0.87660003 0.4375
0.12980001 -0.72619998 -0.27430001
0.2189 -0.70349997 -0.26320001
0.84289998 -0.27450001 -0.25459999
-2.8222001 -0.74190003 -0.63819999
-0.81220001 -0.77350003 -0.52990001
-1.4521 -0.41909999 -2.1433001
-1.6252 -0.41479999 -2.4639001
-1.3867 -0.4215 -1.9679
-1.737 -0.4147 -2.4767001
-1.7177 -0.4131 -2.5971
-2.5329001 0.058200002 0.78619999
-2.5964 -0.23029999 0.78299999
-2.5346999 -0.1627 0.78549999
-2.0567 -0.32870001 0.80239999
-2.3183999 -0.37450001 0.79269999
-2.4984 -0.041700002 0.78710002
-2.6347001 0.3387 0.78329998
-2.4256999 0.12809999 0.79030001
-2.1036 -0.33059999 0.80070001
-1.4326 -0.64569998 -1.7513
0.1121 -0.71259999 0.25560001
-0.1689 -0.54430002 1.2493
3.2242 -0.63499999 0.070100002
1.9496 -0.46470001 -0.2396
-1.6078 -0.65189999 -1.6959
-2.096 0.5467 -0.78539997
-2.1519001 0.60180002 -0.78680003
-3.2755001 -0.4664 0.35780001
-2.5199001 -0.85890001 -0.42899999
2.7723 -0.1196 -0.063000001
-1.6367 -0.6268 -0.6541
-2.0483 -0.61510003 0.45190001
-1.6877 -0.59859997 0.48629999
-2.1947999 -0.61940002 0.79290003
-2.289 -0.4418 -0.76639998
-1.9664 -0.45410001 -0.75349998
-2.2646999 -0.2613 0.76999998
-2.1932001 -0.1347 0.76700002
-2.4412 0.22920001 0.77499998
-2.0797999 -0.0722 0.76270002
-2.1722 -0.1936 0.76639998
-2.1993001 -0.28380001 0.76770002
-2.266 0.1165 0.76889998
-1.4944 -0.38499999 2.5149
-1.1572 -0.38339999 2.1438
-0.5406 -0.38679999 1.5082
-1.4161 -0.38519999 2.4331
-0.053100001 -0.37270001 0.89270002
0.067400001 -0.38499999 0.84640002
0.70740002 -0.53670001 -0.2128
-1.3204 -0.43239999 0.79860002
-1.148 -0.4215 0.83279997
-1.3351001 -0.4025 0.89209998
-0.72970003 -0.65789998 -0.2499
0.3644 -0.48359999 -0.42359999
0.27079999 -0.49559999 -0.2658
1.0738 -0.361 0.44069999
-0.5456 -0.8908 0.4499
-0.79479998 -0.60290003 -0.2281
0.034400001 -0.347 0.67430001
-0.37419999 -0.36109999 0.71249998
-0.22480001 -0.3477 0.65460002
-0.6821 -0.5431 0.57489997
-0.41150001 -0.77969998 0.0189
2.8022001 -0.3337 0.22490001
-0.17399999 -0.49630001 0.23469999
-2.8822999 -0.43810001 0.3039
-1.7569 -0.38909999 0.71899998
0.1495 -0.84810001 -0.53280002
0.99119997 -0.31600001 -0.33430001
-3.908 -0.49540001 -0.082400002
2.1707001 -0.55129999 0.1362
-2.1677001 -0.57590002 0.80790001
-2.7612 -0.55489999 1.5515
-0.5 -0.39950001 -0.64109999
-2.4647 -0.54149997 -1.1868
-2.4396999 -0.54030001 -1.1531
3.0845001 -0.63319999 -0.0603
-1.649 -0.53600001 -0.8179
-0.2133 -0.1837 0.057300001
-2.2193999 -0.38710001 2.6408
-2.7641001 -0.5381 -0.7748
3.0078001 -0.1603 -0.018300001
-2.7174001 -0.398 -0.037
-2.7520001 -0.49669999 0.80580002
-2.3426001 -0.46329999 0.79409999
-1.635 -0.4734 -2.2033
-1.0161999 -0.38170001 -0.5618
-2.4684 -0.48109999 -0.24680001
-1.1247 -0.7137 -0.53469998
-1.85 -0.66039997 0.4673
2.1299 -0.1345 -0.141
1.6029 -0.51969999 0.1631
-1.8071001 -0.63630003 0.6318
-2.5074999 -0.79170001 -0.2651
-1.3046 -0.84170002 0.56300002
2.0372 -0.081900001 -0.1147
-2.0172999 -0.59060001 -0.77950001
-0.58710003 -0.42300001 1.4719
-1.0479 -0.4183 1.9958
-2.2207 -0.45910001 0.7942
0.27579999 -0.39500001 0.75940001
-2.7776 -0.56400001 0.7579
-2.0262001 -0.64389998 -0.68870002
-2.0632 -0.40189999 -2.2781
-1.8145 -0.40079999 -1.2445
-1.8587 -0.4032 -1.6519001
-1.853 -0.40369999 -1.6876
-2.138 -0.39930001 -2.2976
-2.1894 -0.39989999 -2.5466001
-1.9628 -0.40270001 -1.9879
-1.7855 -0.40470001 -1.5427999
-1.7025 -0.3987 -0.61659998
2.6161001 -0.032400001 -0.0014
-3.3048 -0.6024 -0.056200001
-1.8077 -0.42739999 0.65079999
-1.8734 -0.43759999 0.65439999
-2.0502 -0.44080001 0.47679999
-1.4392 -0.87529999 0.47409999
2.0527 -0.1276 0.081699997
-2.3666 -0.43130001 -0.60250002
-3.5611 -0.50889999 -0.12899999
-0.48809999 -0.63459998 -0.57969999
-0.2123 -0.4914 0.61070001
-1.1935 -0.57370001 -2.2376001
-0.4756 -0.86659998 0.29769999
-2.9920001 -0.83329999 -0.4267
-3.0193999 -0.77780002 0.49180001
-1.4829 -0.49860001 -0.74940002
2.0421 -0.54149997 0.13789999
-0.80369997 -0.55680001 1.7372
-1.0003 -0.56529999 1.6648
-0.27399999 -0.71530002 0.25740001
-0.2217 -0.8524 -0.48809999
0.62940001 -0.44510001 0.4729
-0.1936 -0.6239 0.50809997
-3.9853001 -0.5553 -0.00069999998
-0.053300001 -0.51899999 0.0136
-1.5789 -0.43650001 0.83960003
-2.036 -0.52319998 0.46669999
0.74919999 -0.51670003 0.4765
-2.1584001 -0.5625 -0.46779999
-0.3019 -0.4799 -0.245
-2.5136001 -0.57520002 0.78060001
0.2041 -0.7816 -0.52710003
-0.37509999 -0.78350002 0.26789999
-1.1353 -0.57169998 -0.27790001
-1.1359 -0.49939999 0.50709999
-1.075 -0.50050002 0.47530001
-1.251 -0.50059998 0.53659999
-1.2882 -0.64520001 0.66280001
-1.6701 -0.42309999 0.83880001
-0.89039999 -0.56629997 -0.58350003
1.4096 -0.12530001 0.19220001
-3.0641 -0.53719997 -0.1936
-2.6210999 -0.66720003 -0.67339998
-2.2994001 -0.34380001 0.77149999
-2.4905 0.099600002 0.77710003
-2.3216 0.37979999 0.77020001
-2.1319001 0.095299996 0.76410002
-2.1442001 0.046999998 0.7647
-2.2145 -0.0020000001 0.76740003
-2.3281 0.1476 0.77109998
-2.3636999 0.48140001 0.77139997
-2.1781001 0.054099999 0.76590002
-0.47459999 -0.64929998 -1.7021
2.0030999 -0.44240001 0.29100001
-2.1018 -0.63340002 -0.76190001
-0.97359997 -0.77649999 0.2606
-2.4243 -0.79089999 -0.79180002
-2.0813 -0.63779998 0.69529998
-2.1036 -0.42469999 -0.27469999
-0.77899998 -0.6214 0.40970001
-1.4751 -0.54220003 -0.2041
-1.8715 -0.56459999 -0.076099999
-2.1545 -0.56150001 -0.1627
-1.6224999 -0.54640001 -0.1947
-0.74690002 -0.79890001 0.5765
-3.279 -0.55519998 -1.7072999
-2.467 -0.45820001 0.8215
-2.7386999 -0.46380001 0.81209999
-1.3022 -0.44420001 -0.6024
-0.546 -0.4853 -0.5266
0.5826 -0.40869999 -0.61540002
-0.58329999 -0.61849999 0.0136
1.3899 0.00050000002 0.0085000005
0.44389999 -0.16689999 0.1464
0.114 -0.63419998 -1.2069
-0.51190001 -0.3901 0.8549
3.5318999 -0.60909998 0.1027
2.3857999 -0.49739999 -0.2079
-0.75459999 -0.51279998 0.2483
0.072899997 -0.74959999 0.4937
-0.1311 -0.72820002 0.48390001
-3.3283 -0.5499 -1.627
-3.3269 -0.54970002 -1.6687
-3.2076001 -0.54549998 -1.6241
-1.8634 -0.37670001 0.092500001
-1.0497 -0.56900001 -0.2287
-2.9119 -0.7198 -0.64230001
-3.5457001 -0.39719999 0.0112
-1.3793 -0.57639998 -0.37360001
-1.4198 -0.57620001 -0.4339
1.4354 -0.55180001 0.018100001
-2.8058 -0.56599998 0.21799999
-0.1245 -0.81650001 -0.2685
-0.40189999 -0.85540003 0.49509999
-2.8879001 -0.43610001 0.5747
-1.4741 -0.64670002 -0.5072
-1.5296 -0.653 -0.50089997
-0.0583 -0.50349998 -0.2814
0.32350001 -0.51959997 -0.0295
0.1084 -0.48859999 -0.39070001
0.23 -0.51059997 -0.14210001
-0.57700002 -0.6487 -0.5302
-2.6659 -0.4183 0.3163
-0.77509999 -0.55040002 0.46149999
-1.0732 -0.85509998 -0.40239999
2.9128001 -0.38460001 0.22679999
-1.1792001 -0.50840002 -1.253
2.6403 -0.13070001 0.077100001
-1.8135 -0.2228 -0.75849998
-1.573 -0.26890001 -0.75779998
-1.9768 -0.090899996 -0.76059997
-1.7413 -0.085000001 -0.76069999
-1.6226 -0.3125 -0.75709999
-1.8239 -0.322 -0.75700003
-2.1877 -0.69510001 -0.2062
-0.47850001 -0.8951 -0.42250001
2.8747001 -0.61979997 -0.087099999
0.40290001 -0.48210001 0.4598
-2.5892 -0.57160002 0.50190002
2.6926 -0.14579999 -0.1092
-3.0534999 -0.67390001 -0.63410002
-1.7666 -0.38749999 -0.58929998
-1.6538 -0.50770003 -0.74879998
3.5611999 -0.60829997 -0.094999999
-2.6638 -0.5729 -1.1393
-2.5936 -0.57520002 -1.0022
-2.7228 -0.57239997 -1.1676
-2.7818 -0.56889999 -1.3763
-2.9572999 -0.60780001 -0.58219999
-3.1787 -0.79839998 0.50010002
0.37990001 -0.1005 -0.0526
-0.5869 -0.44459999 -0.49290001
1.4338 -0.048099998 0.047800001
-0.1257 -0.229 0.15629999
2.1008 -0.0142 -0.16689999
-1.1273 -0.45829999 -1.253
-1.1867 -0.46309999 -0.68599999
-1.3809 -0.472 -0.67400002
-1.1897 -0.42519999 -0.80470002
-0.99449998 -0.4531 -0.7022
1.983 0.0146 -0.1558
-2.2277999 -0.55919999 -0.75849998
0.1117 -0.89240003 -0.34549999
-0.86930001 -0.75620002 -0.59359998
-0.31470001 -0.6494 0.34169999
-0.082000002 -0.70529997 0.30540001
-2.5978999 -0.58209997 0.53109998
-1.9335999 -0.52999997 -0.30579999
-1.5774 -0.52020001 -0.39829999
-1.4959 -0.5194 -0.40540001
-1.4174 -0.52929997 -0.3087
-2.4816 -0.57999998 -0.062399998
-2.0323 -0.57080001 -0.051100001
-3.0971 -0.67369998 -0.59670001
-1.6249 -0.37020001 -2.6629
-1.7868 -0.59030002 0.82309997
0.53719997 -0.52490002 -0.0163
-0.472 -0.86989999 -0.3263
-0.23800001 -0.86799997 -0.35479999
-3.3180001 -0.67970002 0.28490001
-1.3845 -0.4763 0.62989998
-2.8547001 -0.58759999 -0.073600002
-0.64039999 -0.4436 0.52679998
-1.9622 -0.52380002 2.2230999
1.1609 -0.5165 0.1286
-1.4211 -0.39160001 0.3881
-0.17470001 -0.55769998 -0.45210001
-1.257 -0.37509999 -0.71390003
-1.0566 -0.3818 -0.76560003
-1.5949 -0.1242 0.79790002
-1.5818 -0.086800002 0.7906
-1.4931 -0.2421 0.79790002
-1.5151 -0.48750001 0.64410001
-1.8262 -0.63349998 -0.68830001
-1.5238 -0.5693 0.81919998
-1.1873 -0.4084 -0.3624
0.072700001 -0.8969 -0.3531
-3.2327001 -0.73619998 -0.56569999
-1.4004 -0.55610001 1.71
2.1537001 0.0046000001 0.1646
-3.2297001 -0.55669999 -1.0534
-3.1052999 -0.56150001 -1.1113
-3.1886001 -0.5596 -1.3282
-2.9221001 -0.5693 -1.3422
-2.9370999 -0.5679 -1.1731
-3.1349001 -0.56339997 -1.7015001
-3.2004001 -0.55879998 -1.2577
-3.1056001 -0.56169999 -1.1424
-1.5292 -0.52319998 -0.82029998
0.0973 -0.4876 -0.50709999
-0.66100001 -0.53890002 0.63349998
-1.4553 -0.46430001 -0.81800002
2.2976999 -0.37040001 0.25049999
-1.8602 -0.48159999 -0.8118
-2.016 -0.8933 -0.7974
1.8198 -0.040100001 0.0102
-1.0216 -0.57870001 0.57779998
-3.4986 -0.53719997 -0.1435
-1.8525 -0.4217 2.6791999
-1.4116 -0.57800001 0.3829
-0.35749999 -0.41569999 -0.65649998
2.4751999 -0.084299996 0.13689999
-1.8904999 -0.3734 0.414
-1.8019 -0.63319999 0.58759999
-1.1950001 -0.58740002 1.7222
0.3908 -0.40079999 0.71359998
0.52380002 -0.5219 0.46919999
-0.081900001 -0.67879999 -0.0136
0.57139999 -0.4984 0.19840001
-3.2590001 -0.50569999 -0.30669999
-1.5930001 -0.38440001 0.51090002
-2.0186 -0.42539999 0.24680001
-2.0211999 -0.42629999 0.21340001
-2.4184 -0.45989999 0.2306
-1.9138 -0.4145 0.3585
-1.7711 -0.4014 0.40830001
1.7772 -0.092299998 0.1103
-1.6474 -0.58230001 0.20649999
1.3149 -0.51429999 -0.1666
-0.67589998 -0.84579998 -0.28740001
-0.89160001 -0.7974 -0.27779999
-1.4910001 -0.50199997 -0.81580001
-1.2032 -0.3766 2.6947999
3.2398 -0.25060001 0.1416
0.2332 -0.7802 0.017899999
-2.8006999 -0.83810002 0.53609997
-2.2830999 -0.43900001 0.53799999
2.4361999 -0.1639 -0.030400001
-2.8111 -0.45750001 -0.1504
-1.7056 -0.56339997 -0.052900001
-1.7542 -0.55339998 -0.1564
-1.7519 -0.56099999 -0.084899999
-2.1547999 -0.565 -0.12989999
-2.1886001 0.35679999 0.7676
-2.2121 0.4023 0.7683
-0.82889998 -0.55779999 0.29319999
-2.0840001 -0.40450001 0.75749999
3.3287001 -0.62110001 0.1048
0.60839999 -0.43200001 -0.54339999
-0.95969999 -0.3811 0.71789998
2.2428999 0.084399998 -0.123
-2.3573 -0.56950003 0.75129998
-1.8283 -0.74669999 -0.23119999
3.7567 -0.4032 -0.081
2.8094001 -0.41119999 0.2369
-2.6040001 -0.52740002 -0.69129997
-0.048700001 -0.43009999 -0.53479999
-0.71740001 -0.3547 -0.4964
-0.76990002 -0.352 -0.37369999
-0.9443 -0.3599 -0.36160001
-0.847 -0.35249999 -0.301
-0.86409998 -0.4515 -0.56400001
-0.093400002 -0.60640001 0.54369998
-0.9598 -0.389 0.84689999
-0.68900001 -0.36590001 0.72409999
-0.66680002 -0.39700001 0.88999999
-1.3263 -0.4005 -0.35089999
-1.3533 -0.51679999 2.2040999
-0.98890001 -0.41949999 -0.48859999
0.1837 -0.86150002 -0.4817
-1.7067 -0.55479997 -1.7372
-1.5863 -0.37439999 2.6921
-0.49219999 -0.52679998 0.53049999
-1.9708 -0.405 -2.6472001
-0.84600002 -0.36390001 0.97369999
-0.8926 -0.36480001 1.0531
-0.78740001 -0.3626 0.89310002
-1.9816999 -0.38929999 2.602
-1.6378 -0.38100001 2.1668
-2.2014999 -0.39660001 2.6682
-1.4436001 -0.37630001 1.9227
0.066399999 -0.6893 0.49880001
-1.8839 -0.3962 0.57279998
-1.4464 -0.514 -2.2033
-0.94379997 -0.5183 -0.2419
-3.1594 -0.52469999 0.1901
-1.7375 -0.5808 -0.20379999
-1.9893 -0.58069998 0.68440002
-0.85729998 -0.55019999 -0.51819998
-1.0495 -0.38 0.69150001
-2.796 -0.53909999 -0.7755
-2.8215001 -0.55870003 1.5895
-3.2997999 -0.62529999 -0.27340001
0.1895 -0.62970001 -1.2681
-2.9897001 -0.546 -0.29300001
-2.2553 -0.54299998 0.98110002
-2.1372001 -0.54830003 0.89380002
0.033399999 -0.55000001 -0.52130002
-1.7424999 -0.62870002 0.70370001
-1.9502 -0.63630003 0.56400001
-2.7031 -0.5521 -0.2192
-2.2241001 0.61390001 0.79339999
-2.2207 0.56940001 0.79409999
-1.9679 -0.40669999 2.4408
-2.0033 -0.4021 2.1070001
-1.8526 -0.39930001 1.263
-2.026 -0.40349999 2.3355999
-1.8292 -0.40669999 1.9256999
-2.1020999 -0.39989999 2.2527001
-1.7145 -0.3987 0.6936
-0.12729999 -0.79860002 0.26019999
-1.881 -0.61449999 -0.46900001
-1.7107 -0.55470002 2.2235999
2.3889 0.068800002 -0.062600002
1.1485 -0.38999999 -0.46450001
-2.1908 -0.83459997 -0.5564
-0.1573 -0.83890003 0.55500001
0.69859999 -0.4982 0.2317
-0.49860001 -0.48989999 -0.248
2.5999999 -0.57620001 0.139
-0.88349998 -0.48120001 0.78109998
1.9974999 -0.054900002 -0.00079999998
2.0827999 -0.38620001 -0.2572
-1.5002 -0.61220002 -0.50510001
-0.935 -0.55479997 1.253
-0.2332 -0.87010002 -0.3001
-0.35510001 -0.72799999 -0.56889999
-1.9879 -0.65490001 0.8096
-1.2664 -0.4337 0.81239998
0.1353 -0.39919999 -0.77749997
0.77890003 -0.48339999 -0.32440001
-1.3728 -0.42739999 0.29750001
0.30500001 -0.44839999 -0.59509999
0.29269999 -0.45919999 -0.53689998
-1.4929 -0.61040002 0.67610002
-0.7967 -0.4052 0.88389999
-1.1555001 -0.43290001 0.79729998
-1.1896 -0.4474 0.75190002
-3.2753999 -0.77869999 -0.4874
-1.4719 -0.61500001 1.7561001
-1.8116 -0.389 0.55540001
-1.1295 -0.36579999 -0.66670001
-1.413 -0.51990002 0.65549999
-3.0711999 -0.78329998 -0.41890001
-2.9082 -0.41460001 0.085199997
-0.33340001 -0.8908 0.43169999
-2.5188999 -0.59170002 0.51410002
-2.9868 -0.8193 0.53210002
-0.47150001 -0.60039997 1.2474999
-2.6342001 -0.5298 0.95179999
-2.6868 -0.53299999 1.1425
-3.0005 -0.53969997 1.5385
-3.0502 -0.5402 1.5725
-2.6688001 -0.53500003 1.2598
0.72149998 -0.36880001 0.57200003
-0.51529998 -0.44670001 -0.4686
-1.3185 -0.46970001 0.82340002
-1.8987 -0.69700003 0.8057
1.9732 -0.1168 0.0091000004
-1.6829 -0.73860002 0.2295
-2.7486999 -0.50050002 0.20730001
-1.8149 -0.6929 -0.41240001
-0.13160001 -0.55150002 -0.4131
-0.23890001 -0.55309999 -0.35519999
-2.3794999 -0.52920002 0.2185
-1.2526 -0.57550001 -0.3008
-3.3089001 -0.55680001 1.6648999
-3.3124001 -0.55519998 1.3487
-1.0904 -0.47319999 -2.1991
-1.2735 -0.73379999 -0.2357
0.15530001 -0.63389999 1.2719001
-1.5453 -0.52530003 -0.45919999
0.082000002 -0.8488 -0.48539999
-2.7836001 -0.71210003 0.22669999
-3.0472 -0.54119998 1.6324
-2.326 -0.52990001 0.95289999
-2.5878 -0.42269999 0.1166
-0.91820002 -0.6437 1.7546999
-2.1273999 -0.61000001 -0.80930001
-1.6664 -0.5643 -0.45789999
-0.708 -0.87989998 -0.5194
-2 -0.62910002 -0.48379999
-2.1071 -0.44940001 0.78689998
-1.3288 -0.54210001 0.82929999
-2.9224 -0.68709999 -0.2307
0.38999999 -0.35229999 0.65030003
-2.4147999 -0.1671 -0.78979999
-2.4986999 0.083899997 -0.78750002
-2.1752 -0.1797 -0.7985
-2.4407001 0.30090001 -0.7902
-2.2449999 0.2859 -0.79729998
-2.3552001 0.1709 -0.79299998
-2.2056999 -0.23469999 -0.79720002
-1.9769 -0.3175 -0.8053
-2.3079 -0.2307 -0.79350001
-2.5357001 -0.2242 -0.78530002
3.6879001 -0.50849998 -0.13600001
0.38420001 -0.5183 0.032499999
-2.5481 0.40709999 -0.78659999
-2.6205001 -0.029100001 -0.7827
-2.6269 0.2246 -0.78320003
-1.584 -0.81550002 0.2859
-0.52960002 -0.51410002 0.70340002
-3.0905001 -0.59710002 0.054000001
-1.5749 -0.38510001 0.60600001
-1.1878 -0.81720001 0.3382
-2.3192 -0.42539999 -0.21529999
-1.8183 -0.3926 -0.4596
-1.6473 -0.38249999 -0.47549999
-1.5240999 -0.3795 -0.2358
-1.8914 -0.39829999 -0.36750001
-1.4054 -0.37180001 -0.2895
-1.9836 -0.4043 -0.3258
-1.6169 -0.3795 -0.5485
-0.97589999 -0.44400001 0.28799999
0.289 -0.7015 0.0082
-0.6814 -0.57700002 1.2258
2.5882001 -0.12540001 0.12809999
-1.7869 -0.49590001 -2.1991
0.89109999 -0.52499998 -0.069899999
0.25529999 -0.32210001 -0.4603
0.33379999 -0.30050001 -0.2572
-0.1182 -0.32069999 -0.2728
0.1918 -0.31709999 -0.3759
-1.6099 -0.76709998 -0.63569999
-0.65249997 -0.36210001 0.98729998
-1.4893 -0.37819999 2.1938
-0.96609998 -0.36719999 1.3742
-1.1109 -0.36919999 1.52
-1.1625 -0.37329999 1.8314
-1.3042001 -0.37470001 1.9328001
-1.006 -0.36860001 1.477
-1.7492 -0.38260001 2.529
-0.98930001 -0.37149999 1.6964
-1.3357 -0.3768 2.0892999
-0.43720001 -0.36410001 1.1391
-1.0743999 -0.37279999 1.7915
-1.4105 -0.37540001 1.9828
-1.5707 -0.37959999 2.2995
-0.65880001 -0.36269999 1.0359
-0.69690001 -0.36610001 1.2848001
-2.5404999 0.56559998 -0.77759999
-2.5832 0.64539999 -0.77890003
-2.1928 -0.16940001 -0.76709998
-2.5186999 0.4689 -0.77710003
-2.5753 -0.20739999 -0.78109998
-2.0702 -0.36759999 -0.76319999
-2.3683 0.085699998 -0.77270001
-2.4028001 0.28670001 -0.77340001
-2.2196 -0.27160001 -0.76840001
-2.3195 -0.066200003 -0.77139997
-0.82880002 -0.69730002 0.54159999
-0.2247 -0.4251 1.0711
-0.7784 -0.40290001 1.8108
0.2814 -0.40939999 0.6347
-0.77429998 -0.4113 1.7506
-0.065800004 -0.42390001 0.90939999
-0.33739999 -0.39950001 1.3623
-0.63080001 -0.4199 1.5394
3.5746 -0.33059999 -0.1019
-1.1323 -0.65700001 -0.221
-1.2964 -0.4384 -0.815
2.6429999 -0.27829999 0.2229
0.1203 -0.37200001 0.74180001
-0.4188 -0.3971 0.87919998
-2.5064001 -0.38749999 0.026799999
2.125 0.048900001 0.1567
-1.9841 0.31889999 0.76700002
-1.7485 -0.1401 0.75980002
-1.831 -0.0127 0.76179999
-1.9188 -0.0108 0.76179999
-1.7786 -0.1952 0.759
-1.742 -0.229 0.75840002
-2.2170999 -0.54210001 -0.8082
-0.45590001 -0.68959999 -0.23379999
-2.7467 -0.85500002 -0.4501
2.0725999 0.034299999 -0.1552
-0.4772 -0.39669999 -1.4787
-1.4799 -0.3901 -2.5062001
-0.98180002 -0.42269999 -0.36250001
0.4506 -0.29080001 0.24680001
0.54229999 -0.28760001 0.2897
-3.7063999 -0.4066 0.031399999
0.73839998 -0.050999999 0.072499998
3.3466001 -0.6376 0.048700001
-2.2268 -0.5399 0.93220001
-0.4402 -0.23989999 -0.1074
-0.075099997 -0.2251 -0.1339
0.19850001 -0.8355 -0.52969998
-0.059599999 -0.42899999 0.58749998
-2.6328001 -0.53579998 -1.3083
-2.7544999 -0.53710002 -1.3858
-1.1463 -0.53079998 2.1798999
-1.9493001 -0.8319 -0.31389999
-1.5905 -0.37940001 2.1612999
-1.4525 -0.37830001 1.7519
-1.872 -0.3863 2.4949
-1.8577 -0.3881 2.2614
-1.1911 -0.37130001 1.4987
-1.6895 -0.38209999 2.2495999
-2.0232999 -0.39120001 2.556
-1.8345 -0.38550001 2.4396
-0.078599997 -0.89880002 -0.30880001
-0.48640001 -0.4012 -0.53780001
-2.0271001 -0.83149999 -0.31369999
-2.5086999 -0.7335 -0.79540002
-0.69800001 -0.4039 0.52670002
-2.7179999 -0.67949998 -0.219
-1.4931 -0.42469999 -2.6844001
-0.84320003 -0.55089998 0.4348
0.16069999 -0.65399998 0.5244
-0.91930002 -0.83899999 0.29030001
2.4775 -0.4971 -0.2172
-1.655 -0.3813 -2.1716001
-1.5374 -0.37979999 -1.8889
-1.7921 -0.3849 -2.3146
-1.3289 -0.37509999 -1.5939
-2.0562999 -0.39269999 -2.5028
-1.2624 -0.37419999 -1.4405
-1.8037 -0.3858 -2.2711
1.3723 -0.2992 -0.27919999
-2.9394 -0.80089998 -0.3109
-0.1257 -0.61199999 1.2113
-1.5398999 -0.23819999 0.76010001
-2.0973001 0.54699999 0.77939999
-1.7328 -0.47170001 2.1991
1.9001 -0.48449999 -0.20200001
-0.095799997 -0.70209998 -0.48339999
-1.2776 -0.8064 0.37200001
-1.8018 -0.69940001 0.43959999
-0.65179998 -0.4813 1.253
-3.0774 -0.47780001 -0.3556
-2.4705999 -0.60000002 -0.57230002
2.0267999 -0.1248 -0.089000002
-2.4339001 -0.62699997 -0.792
-2.4690001 -0.60689998 -0.79329997
-2.1921999 -0.37540001 0.40720001
-0.20919999 -0.7471 0.56129998
-2.9784 -0.83249998 0.4702
-0.2719 -0.34189999 -0.5255
-0.064400002 -0.33849999 -0.5424
0.1061 -0.3387 -0.62440002
-0.2843 -0.33719999 -0.40979999
0.6275 -0.50520003 0.4675
-0.53299999 -0.2588 -0.1245
-1.0536 -0.54939997 1.253
-1.1161 -0.42629999 -1.2265
-2.2699001 -0.65249997 0.78609997
-3.7839999 -0.419 -0.044599999
-0.81260002 -0.264 -0.019200001
-0.27829999 -0.2114 -0.090000004
-0.99629998 -0.56330001 -0.26589999
-0.42550001 -0.68089998 0.57639998
-1.6661 -0.7119 0.6688
-0.031599998 -0.71310002 0.48719999
-0.63789999 -0.4851 0.51059997
-1.0470001 -0.50419998 0.43020001
-0.75639999 -0.509 0.37059999
1.8612 -0.546 -0.1177
-1.5439 -0.52600002 -2.2033
-0.41510001 -0.46020001 -0.52679998
-1.3394001 -0.87959999 -0.46509999
-3.8141999 -0.56459999 0.097900003
0.88789999 -0.352 -0.48019999
-0.14300001 -0.77850002 -0.43990001
0.089100003 -0.83179998 -0.36719999
-3.6001 -0.41049999 -0.071599998
2.7622001 -0.1734 -0.1372
-0.13860001 -0.42250001 -0.65689999
-1.6933 -0.36579999 -0.089000002
0.31380001 -0.58700001 -0.219
-2.6048999 -0.41510001 0.56599998
1.1273 -0.53320003 0.042100001
0.5794 -0.46419999 0.41859999
1.6373 -0.1256 -0.19410001
-1.8609999 -0.3883 0.60839999
-0.1402 -0.54259998 0.22050001
-0.59299999 -0.39579999 -0.72930002
-1.6669 -0.43099999 2.207
2.026 -0.1244 0.053300001
-2.6228001 -0.7762 0.2581
3.5169001 -0.32229999 -0.1237
0.44819999 -0.54409999 -0.24590001
-0.6182 -0.58819997 -0.58679998
-0.0208 -0.45269999 -0.6099
0.4736 -0.57700002 -0.2466
1.783 -0.5043 -0.18960001
0.33320001 -0.62580001 0.48539999
-2.5107 -0.52869999 -0.26519999
0.28080001 -0.86369997 -0.40459999
-1.549 -0.41249999 -1.4528
-0.98220003 -0.4296 -1.0962
-0.98860002 -0.42570001 -0.72790003
-1.5082 -0.40580001 -0.61729997
-1.7413 -0.41339999 -2.2665
-0.81760001 -0.43340001 -0.87010002
-0.94959998 -0.42559999 -0.56529999
-1.3479 -0.4161 -1.0765001
-0.92549998 -0.4298 -0.90850002
-1.2065001 -0.421 -1.0520999
-1.737 -0.40650001 -1.5454
-1.5444 -0.40540001 -0.71039999
-1.3846999 -0.41600001 -1.2015001
-1.6988 -0.40110001 -0.85100001
-1.7378 -0.41460001 -2.3745999
-1.4739 -0.4075 -0.6627
-1.5839 -0.41409999 -1.751
-1.5562 -0.40549999 -0.76660001
-1.3422 -0.4154 -0.9842
-1.0824 -0.421 -0.58880001
-1.692 -0.40099999 -0.81160003
-1.4901 -0.41010001 -0.99339998
-1.5420001 -0.4136 -1.5473
-1.2219 -0.4172 -0.72109997
-2.2722001 -0.5571 0.47400001
-1.9118 -0.41 -2.5476
-1.8453 -0.39879999 -1.1569999
-2.0964 -0.40180001 -2.3971
-2.0541999 -0.4034 -2.4054
-1.8415999 -0.40900001 -2.1801
-1.9967 -0.3996 -1.8002
-1.8745 -0.40529999 -1.9282
-2.0882001 -0.3987 -2.0511999
-3.1122 -0.58899999 -0.1133
0.42269999 -0.63139999 -0.4928
-3.5258999 -0.39860001 -0.0222
-3.0715001 -0.55070001 -0.2538
-1.0587 -0.41280001 0.46340001
-1.6956 -0.46830001 -0.24789999
1.9909 -0.50080001 0.1842
-1.807 -0.77359998 -0.63429999
0.2694 -0.86189997 0.266
-1.5944999 -0.54070002 1.6402
2.0316 -0.2316 0.2286
-1.4439 -0.36919999 0.1288
-3.8167 -0.52490002 -0.1088
-0.9023 -0.27289999 0.0211
-2.0646999 -0.64029998 -0.62
2.5723 -0.1768 -0.038899999
-1.0391999 -0.65509999 -1.2667
2.1045001 -0.13160001 0.064900003
-1.303 -0.5226 0.64810002
-1.9959 -0.46200001 0.83899999
-2.5969999 -0.5187 0.82260001
-2.411 -0.47679999 -0.4937
0.6469 -0.77139997 0.032499999
-2.0469999 0.084799998 0.7633
-1.8377 -0.1025 0.7604
-1.6102 -0.31110001 0.75709999
-1.7043999 -0.071699999 0.76090002
-1.8906 -0.068499997 0.76090002
-1.8882999 -0.23630001 0.75830001
-3.2098 -0.75389999 0.308
-3.1255 -0.66890001 -0.2852
-1.1063 -0.68169999 1.191
-1.0936 -0.35479999 0.4808
-1.054 -0.35409999 0.41549999
-0.65670002 -0.3396 0.2401
-0.78170002 -0.34540001 0.22239999
-1.2593 -0.36340001 0.3951
-0.51950002 -0.37079999 -1.3506
-0.68629998 -0.39089999 -1.6637
-0.13609999 -0.38209999 -1.0168
-0.89520001 -0.37380001 -1.7723
-0.1847 -0.3858 -1.0936
-0.49349999 -0.38440001 -1.4138
-2.0664001 -0.63010001 -0.7802
2.0913999 -0.1313 -0.0594
0.13609999 -0.48519999 0.32030001
-0.54449999 -0.84710002 0.28549999
0.1832 -0.39610001 -0.77649999
0.0242 -0.38980001 -0.76740003
-2.0220001 -0.82660002 0.30379999
0.69319999 -0.30140001 0.38190001
-1.9835 -0.62449998 0.69330001
-2.2109001 -0.58960003 -0.20200001
1.7711 -0.4598 0.25479999
-2.1930001 -0.90100002 -0.79079998
0.19159999 -0.801 0.53119999
-3.2744999 -0.551 -1.0203
-3.2061999 -0.54809999 -1.0875
-3.1839001 -0.54629999 -1.2952
-2.8234999 -0.53539997 -0.85339999
-2.9182 -0.53839999 -0.93480003
-3.1364999 -0.54640001 -0.92979997
-2.8947001 -0.53780001 -0.88770002
-1.7359999 -0.46070001 -2.2074001
-1.2099 -0.54509997 -0.47690001
-0.39930001 -0.53240001 1.2513
-2.9960999 -0.67820001 -0.64200002
-2.6496999 0.84100002 -0.78079998
-3.3269999 -0.45680001 0.43430001
0.089599997 -0.7094 -0.5381
-2.0493 -0.39770001 -0.5614
-1.6058 -0.3942 -0.67760003
-1.6095999 -0.39489999 -0.616
-1.5082 -0.389 -0.83859998
-1.1437 -0.37810001 -0.60030001
-1.6072 -0.38730001 -1.382
-1.1224999 -0.37290001 -1.0587
-1.1813 -0.3793 -0.62269998
-1.3515 -0.37900001 -1.2855
-1.8333 -0.39809999 -1.1212
-1.6617 -0.39539999 -0.76169997
-1.5798 -0.38440001 -1.5807
-1.4973 -0.3845 -1.2636
-0.81599998 -0.36359999 -0.86210001
-1.5765001 -0.38510001 -1.4972
-1.0218 -0.37270001 -0.70069999
-1.3975 -0.3858 -0.75459999
-1.3943 -0.3795 -1.3942
-1.823 -0.38960001 -1.9450999
-2.0429001 -0.396 -2.1126001
-1.8796999 -0.3924 -1.8749
-1.3915 -0.3865 -0.66540003
-1.4042 -0.37799999 -1.5757999
-1.3196 -0.38339999 -0.7098
-1.7543 -0.3908 -1.5755
1.8977 -0.1069 -0.1441
-2.1161001 -0.80559999 0.80690002
0.49540001 -0.52249998 0.0211
0.71829998 -0.52240002 0.056000002
-3.1628001 -0.78600001 -0.34599999
-1.2644 -0.3748 1.4159
-1.0567 -0.36970001 1.1624
-1.4296 -0.38749999 0.73379999
-1.0735 -0.3712 1.0711
-1.962 -0.3953 1.9091001
-1.2074 -0.375 1.1855
-1.7529 -0.391 1.5741
-1.6515 -0.38690001 1.62
-1.1172 -0.37740001 0.59979999
-2.0703001 -0.39430001 2.4126
-1.2752 -0.3777 1.1581
-1.0113 -0.3732 0.63910002
-2.0325 -0.3973 1.9692
-1.2247 -0.37380001 1.3702
-1.3898 -0.38429999 0.90789998
-1.1126 -0.37220001 1.1210001
-1.8056 -0.39160001 1.7121
-1.1911 -0.37329999 1.2999001
-1.7849 -0.39840001 0.9339
-1.8932 -0.39539999 1.6423
-2.0362 -0.39660001 2.0596001
-1.2815 -0.37490001 1.4698
-0.62980002 -0.35969999 0.59810001
3.0969999 -0.58429998 -0.1609
-2.4784 -0.57779998 0.84750003
-2.5682001 -0.57139999 1.2283
-2.8134999 -0.5675 1.4635
-2.6977 -0.57309997 1.127
-2.2663 -0.57849997 0.80470002
-2.3476 -0.52770001 0.79610002
0.68300003 -0.292 -0.3127
-2.5037 0.91049999 -0.78219998
1.8941 0.1023 0.0548
1.5793999 0.020400001 0.090499997
-1.6449 -0.54430002 -1.71
-1.7314 -0.59280002 -0.6803
-0.6925 -0.49020001 0.48379999
-0.70039999 -0.50400001 0.3969
-1.0470001 -0.41710001 0.51239997
-0.84299999 -0.8707 -0.5388
-1.0639 -0.3757 0.63940001
-0.60159999 -0.41339999 0.85219997
-0.76239997 -0.46970001 0.63679999
-0.53399998 -0.46380001 0.63340002
-2.3175001 -0.53009999 -0.80479997
0.38010001 -0.56220001 -0.2369
-1.7139 -0.50709999 0.77670002
3.3787 -0.2406 -0.024800001
-3.3011999 -0.49079999 -0.32769999
-0.4235 -0.49779999 0.69129997
-1.0236 -0.74519998 -0.54049999
-0.98150003 -0.8488 -0.51999998
-0.85149997 -0.62010002 1.6911
-3.3282001 -0.4587 0.46650001
-2.5144 -0.42879999 -0.59060001
0.49849999 -0.52520001 0.3285
-0.88190001 -0.48930001 0.51620001
-1.183 -0.49590001 0.55849999
-1.3784 -0.51340002 0.45680001
-0.57090002 -0.4675 0.2586
-2.1932001 -0.70270002 -0.78329998
-1.6896 -0.6742 -0.2069
0.54729998 -0.42129999 -0.597
-2.3964 -0.84750003 0.35569999
-2.1089001 -0.63459998 0.71020001
-1.6293 -0.64700001 -0.3547
-1.9749 -0.62900001 -0.41150001
-2.5063 -0.59399998 0.71939999
-0.0040000002 -0.79640001 -0.50599998
-2.9572999 -0.57160002 0.5187
-0.5535 -0.68279999 1.289
-2.0667 -0.63630003 0.77139997
-2.9572999 -0.63520002 0.5848
-0.84549999 -0.37760001 0.66079998
-0.92940003 -0.43169999 -1.253
-0.53719997 -0.63169998 -0.4585
0.46799999 -0.65380001 -0.49430001
2.0404999 -0.1275 0.1365
1.934 -0.112 0.1187
-1.3372 -0.39109999 -2.3599
-1.0448 -0.38999999 -2.0404999
3.9862001 -0.57169998 -0.017100001
-0.132 -0.71749997 0.5122
2.3146999 -0.48500001 -0.2181
-2.8222001 -0.53490001 -0.94450003
-3.1020999 -0.54460001 -1.035
-2.9828 -0.54119998 -0.85659999
-3.0002 -0.542 -0.82480001
-2.8959999 -0.53680003 -1.1083
-0.82959998 -0.56489998 0.2552
-0.71240002 -0.52609998 0.53320003
-0.89719999 -0.65820003 1.7176
1.6066 -0.5503 -0.062799998
0.972 -0.40329999 -0.51639998
0.1204 -0.53219998 -0.51319999
-3.8289001 -0.53719997 0.1039
1.8738 -0.5442 0.1245
0.85720003 -0.48519999 0.30770001
1.0178 -0.49259999 0.25009999
0.35949999 -0.55949998 0.5029
-1.3326 -0.39469999 0.39469999
-0.47139999 -0.56559998 -0.51770002
-0.26100001 -0.50599998 0.55360001
1.9909 -0.1928 0.2138
0.3497 -0.4095 0.70679998
-1.0825 -0.58920002 1.1953
-1.7541 -0.4005 0.16339999
1.5214 -0.4384 -0.3409
-0.3646 -0.73379999 0.46599999
-1.3894 -0.67549998 0.51239997
0.125 -0.4862 -0.29519999
-3.0527999 -0.73040003 0.56910002
0.102 -0.72960001 -0.2427
-1.4823 -0.43560001 -0.76920003
-1.6311001 -0.47490001 -0.61180001
-2.4525001 -0.50660002 -0.32429999
-1.4701999 -0.46619999 -0.676
-2.3247001 -0.50129998 -0.37020001
-0.56879997 -0.81730002 0.064300001
-0.64020002 -0.8071 -0.26499999
-3.7260001 -0.43290001 -0.094700001
-0.48699999 -0.4702 0.54710001
-0.80680001 -0.59649998 1.7065001
0.5431 -0.73210001 0.0287
0.56760001 -0.059500001 -0.033799998
-2.4224 -0.7802 0.25569999
-1.8792 -0.37990001 2.6368001
-1.9927 -0.3786 -0.3653
-2.5912001 -0.42179999 -0.1149
-1.4601001 -0.5438 1.7372
-3.9409001 -0.47049999 -0.054000001
2.1895001 -0.14129999 -0.077
-0.87730002 -0.3603 0.66769999
-1.2041 -0.38800001 0.83960003
0.86470002 -0.75309998 -0.024800001
-0.85250002 -0.58579999 0.25299999
-2.2044001 -0.56519997 0.1468
-0.51740003 -0.88959998 0.34580001
-0.4285 -0.7342 -0.3698
-3.2604001 -0.44929999 0.4102
-1.2687 -0.49180001 1.71
-3.2925999 -0.59289998 0.60180002
1.9252 -0.1105 -0.034699999
-1.8899 -0.38519999 0.3272
-0.78060001 -0.26350001 -0.0341
0.2825 -0.852 0.48010001
-2.3850999 0.0093 -0.77359998
-2.4261 -0.30489999 -0.77600002
-2.3773 -0.36449999 -0.7744
-2.5265 0.19490001 -0.77819997
-2.5420001 -0.28369999 -0.78009999
-2.5346999 0.1148 -0.77869999
-2.4702001 0.048900001 -0.77649999
-2.1733 -0.13860001 -0.76630002
-2.1183 -0.17389999 -0.76440001
0.398 -0.3581 -0.65939999
0.75529999 -0.51569998 0.21619999
-1.1884 -0.38859999 2.6329999
-0.26190001 -0.73119998 -0.0273
-3.1796999 -0.60640001 0.25729999
-0.060899999 -0.4287 -0.72430003
-0.2475 -0.44980001 -0.65829998
-2.0732999 -0.39359999 -0.65619999
0.65140003 -0.5244 -0.47870001
-2.5388 -0.49630001 -0.58990002
-1.885 -0.38080001 -0.52410001
-1.0257 -0.45750001 0.72030002
-0.7615 -0.43040001 0.801
0.83109999 -0.38209999 -0.55909997
-2.9572999 -0.64120001 -0.29789999
-1.6179 -0.4183 -2.1991
-0.66790003 -0.88660002 -0.36520001
-2.8706 -0.54729998 -1.6406
-1.8075 -0.70020002 -0.67549998
-1.5074 -0.41859999 2.6452999
-0.74040002 -0.5503 0.47960001
-0.0623 -0.75989997 0.032499999
0.80299997 -0.32589999 -0.44010001
-0.44670001 -0.28040001 -0.1771
2.2746 -0.085699998 -0.168
-0.47830001 -0.62629998 0.57789999
0.54650003 -0.47909999 -0.3845
1.6313 -0.062799998 0.145
-2.3427999 -0.60500002 0.80150002
-2.3111 -0.61540002 0.80269998
-1.0686001 -0.4366 -0.8003
0.57599998 -0.4806 -0.3707
-1.1837 -0.4258 -2.6756999
-0.33329999 -0.86369997 -0.27829999
-2.3552999 0.82779998 -0.7881
-2.9905 -0.50309998 -0.1743
-0.46529999 -0.53969997 0.021500001
0.2084 -0.52359998 0.0177
-0.095700003 -0.5273 0.055100001
-0.2437 -0.51310003 0.5262
-0.52520001 -0.85210001 -0.51139998
-3.3153999 -0.4623 -0.3813
0.4228 -0.49340001 -0.30559999
0.55309999 -0.51800001 -0.089199997
-2.8373001 -0.50449997 -0.64020002
-2.1894 -0.52139997 0.36230001
-1.6596 -0.44010001 0.72240001
-2.1169 -0.51249999 0.40459999
-1.4306999 -0.44459999 0.75379997
-1.702 -0.44690001 0.69270003
-1.4467 -0.4542 0.72060001
-1.2333 -0.59630001 -0.6771
-1.8075 -0.41170001 0.79350001
-1.7103 -0.62669998 -0.56730002
-3.0984001 -0.72549999 -0.57200003
0.040600002 -0.48910001 0.39649999
0.1558 -0.46290001 0.52950001
-0.64579999 -0.58179998 -1.2309999
-1.8302 -0.5151 -0.2173
-2.0385001 -0.59799999 0.19589999
0.4181 -0.55940002 0.48469999
-1.3243001 -0.36480001 -0.1426
-1.3868001 -0.42030001 2.6456001
2.1954 -0.31819999 -0.2423
-0.65670002 -0.8973 -0.42649999
2.6656001 -0.51010001 0.2049
-0.53479999 -0.89950001 -0.3994
-0.83859998 -0.42730001 -1.5276
-0.55059999 -0.43079999 -1.2659
-0.3673 -0.43610001 -0.86619997
-0.31119999 -0.43920001 -0.63859999
-0.5011 -0.4364 -0.84740001
-1.3585 -0.41859999 -2.1856999
-1.449 -0.4172 -2.2836001
-0.66060001 -0.4298 -1.3384
-0.168 -0.43959999 -0.60839999
-0.25749999 -0.435 -0.94889998
-1.0221 -0.4237 -1.802
-0.46110001 -0.44 -0.57340002
3.1071999 -0.46340001 0.2184
0.1881 -0.27919999 0.21430001
-3.1403 -0.477 -0.57309997
-0.9619 -0.63669997 0.55070001
0.1701 -0.79729998 -0.2538
-0.98460001 -0.57569999 -0.7044
-2.1261001 -0.64240003 -0.80940002
3.1919999 -0.2013 -0.050099999
-3.1626999 -0.78280002 -0.54269999
-2.6382 -0.5751 0.66829997
-2.3480999 -0.38229999 0.51719999
-1.4518 -0.405 -2.4883001
-1.1061 -0.42019999 -2.0174
2.0192001 -0.40509999 -0.30140001
-1.5375 -0.583 -0.49790001
-0.61479998 -0.57200003 1.3006999
1.5797 -0.029200001 -0.0328
-1.0899 -0.8477 0.37180001
-1.9545 -0.6645 0.42899999
-0.50669998 -0.82249999 0.2802
2.319 -0.59670001 -0.013
1.4037 -0.37279999 -0.3761
-2.388 0.3696 -0.7924
-2.027 -0.32249999 -0.8035
-2.1043 0.0427 -0.8017
-2.3296001 0.2106 -0.79400003
-2.2579 0.219 -0.79659998
-2.4108 0.43689999 -0.79170001
-2.4618001 0.73250002 -0.79070002
-2.0736001 -0.3301 -0.80180001
-2.4821999 -0.38429999 -0.78670001
-1.3821 -0.4885 0.24590001
-1.6608 -0.65240002 0.20389999
0.60729998 -0.50449997 0.29300001
-3.0438001 -0.69139999 -0.59219998
-2.2507 -0.42919999 0.59280002
0.53350002 -0.49160001 -0.30500001
-0.76910001 -0.55269998 0.58590001
-2.2839 0.77289999 -0.78070003
-2.9572999 -0.64270002 -0.47139999
3.4570999 -0.63200003 -0.0726
-1.8207999 -0.86510003 0.47580001
-0.50660002 -0.433 1.1265
-0.17380001 -0.4384 0.72460002
-0.0096000005 -0.43990001 0.61080003
-0.99019998 -0.4258 1.6668
-0.2388 -0.43849999 0.71759999
-0.7687 -0.43360001 1.0816
-0.42770001 -0.44010001 0.59359998
-1.053 -0.42480001 1.7469
-0.41999999 -0.43279999 1.1435
-0.29449999 -0.4339 1.0647
-1.2411 -0.41980001 2.1171999
-0.2985 -0.43630001 0.87959999
-0.57529998 -0.42950001 1.3891
-0.52640003 -0.4303 1.3351001
3.8343999 -0.43189999 0.062100001
-2.2274001 -0.5765 0.0517
-1.4856 -0.54000002 0.228
-2.2814 -0.574 0.086400002
-2.3034 -0.5783 0.051399998
-1.8339 -0.56770003 0.046500001
-2.8229001 -0.5632 0.14569999
-1.5245 -0.56309998 0.46239999
0.14399999 -0.69730002 -0.52999997
-3.3195 -0.5553 -1.4263
-3.3274 -0.5539 -1.2088
-3.3422999 -0.5546 -1.4638
-2.3467 -0.8585 0.47040001
1.2479 -0.5323 -0.0748
-3.0802 -0.53060001 -0.57999998
-0.59719998 -0.47690001 -0.56660002
-0.87410003 -0.4966 -0.5
-0.67739999 -0.48230001 -0.54900002
0.2748 -0.81940001 -0.50449997
-1.5453 -0.6189 0.72909999
1.7473 -0.37540001 -0.2949
-1.9115 -0.38389999 -0.331
-1.3461 -0.54390001 -0.16159999
-1.1046 -0.53539997 -0.1925
-1.1334 -0.551 -0.052000001
-2.8440001 -0.8484 -0.47530001
-3.3968999 -0.5521 1.7003
-3.1205001 -0.54220003 1.6573
0.1107 -0.69370002 -0.0136
-1.9798 -0.40900001 -0.4368
-1.0161 -0.56470001 0.62190002
2.3120999 -0.1521 0.1689
-2.5685 -0.5783 0.6706
-1.118 -0.59820002 1.2043999
-2.9572999 -0.4858 -0.42730001
-0.90509999 -0.74959999 0.5388
-1.165 -0.6469 0.2184
-2.6707001 -0.52780002 -0.2278
-2.2306001 -0.41980001 -0.2463
-2.0545001 -0.41080001 -0.17839999
-2.1803 -0.41499999 -0.3594
-1.8371 -0.3987 -0.1582
-1.5269001 -0.37819999 -0.3186
-1.7114 -0.39120001 -0.1768
-1.7676001 -0.39070001 -0.40009999
-0.64450002 -0.4366 -0.7475
0.1179 -0.59149998 0.2191
-1.1587 -0.382 0.69139999
-3.1204 -0.4438 -0.52990001
-1.7699 -0.37149999 0.0911
-2.9054999 -0.50440001 0.25060001
-2.6050999 0.523 0.78009999
-2.5766001 0.80059999 0.77819997
-2.4540999 -0.47009999 -0.52179998
-1.1616 -0.49970001 -0.47639999
-0.75779998 -0.4235 -1.6232001
-0.3996 -0.42899999 -1.2036999
-2.3440001 -0.3687 -0.44960001
-2.4068 -0.70469999 -0.79110003
-0.52990001 -0.86400002 0.45930001
-0.26609999 -0.41569999 -0.63190001
-0.68000001 -0.37979999 0.58499998
-0.78390002 -0.5334 0.1532
-0.63050002 -0.5183 0.26859999
-0.089900002 -0.37270001 -0.69870001
-0.15260001 -0.36660001 -0.68599999
1.8705 0.0722 -0.1117
-0.92769998 -0.57260001 -1.7276
-2.4705999 -0.47040001 0.29179999
-1.1402 -0.51999998 2.2165
-1.7119 -0.52649999 0.40450001
-1.721 -0.53719997 0.3028
-1.9696 -0.54650003 0.26660001
-1.5975 -0.5187 0.45559999
-1.4938 -0.52960002 0.32690001
1.1928999 -0.2631 0.27250001
-0.78469998 -0.377 0.7051
-2.7435 -0.56809998 1.4276
-2.5274 -0.57630002 0.93879998
-2.8303001 -0.56699997 1.4895
-2.3478 -0.5765 0.9267
2.2260001 0.092600003 0.1172
-2.2581 -0.52829999 -0.86299998
-2.8168001 -0.53399998 -1.1991
-2.5216 -0.52859998 -0.88020003
-2.9512999 -0.53909999 -1.5053
-1.1565 -0.40529999 0.4729
1.5696 -0.42250001 0.39050001
3.4275 -0.25420001 0.041299999
-1.2834001 -0.86619997 -0.3574
-1.4344 -0.38080001 0.6476
-0.77460003 -0.63279998 -1.2719001
-2.7388999 -0.76069999 -0.25150001
-2.2474 -0.78210002 0.78530002
-0.95359999 -0.4689 -0.79149997
-0.32530001 -0.51239997 -0.2563
-0.062199999 -0.5176 -0.14120001
-0.45100001 -0.51029998 -0.30669999
-0.54329997 -0.59079999 1.7309999
-2.0086999 -0.3994 0.3053
-0.41859999 -0.55309999 -0.35780001
-0.046 -0.55419999 -0.31650001
-0.1762 -0.55330002 -0.34810001
-0.88779998 -0.56459999 0.56739998
-2.3375001 -0.55000001 1.1107
-2.1466999 -0.76499999 0.63990003
-1.2958 -0.4007 -0.523
0.8955 -0.4709 -0.3479
-1.2460001 -0.8714 -0.5054
-3.1986001 -0.5715 -0.2674
0.52899998 -0.4903 0.28749999
2.0964999 -0.032900002 0.1655
-1.094 -0.4118 -0.4156
-2.0639999 -0.57889998 -0.2009
-1.0705 -0.375 -0.64770001
-1.7205 -0.38929999 -1.5961
-1.1739 -0.37419999 -1.11
-1.6426001 -0.3953 -0.69679999
-1.6937 -0.38769999 -1.6623
-2.0086 -0.3937 -2.2242
-1.5738 -0.38960001 -1.0273
-1.3494 -0.37990001 -1.1831
-2.2012 -0.39829999 -2.4670999
-1.5447 -0.3928 -0.5948
-0.90219998 -0.3691 -0.63
-1.9499 -0.39770001 -1.5985
-1.9926 -0.39660001 -1.8645
-1.5297 -0.38820001 -1.0055
-1.7513 -0.3865 -1.9983
-0.91670001 -0.36809999 -0.77649999
-1.4857 -0.38550001 -1.1202
-1.6058 -0.38280001 -1.8425
-1.7371 -0.38659999 -1.9404
-1.3723 -0.3811 -1.147
-0.9533 -0.35299999 0.51020002
-0.6049 -0.34979999 0.5636
-1.2176 -0.359 0.5539
-0.66680002 -0.3448 0.42410001
-1.5616 -0.18960001 -0.80159998
-1.3677 -0.37029999 -0.79549998
0.3132 -0.64029998 -0.2291
-3.2867 -0.53060001 0.1833
0.3258 -0.56099999 -0.41909999
0.39559999 -0.54509997 -0.39879999
-0.92589998 -0.56330001 0.27520001
0.9149 -0.36610001 0.50520003
-0.074500002 -0.6261 0.0136
-0.39820001 -0.5632 0.25389999
0.90170002 -0.47940001 0.31529999
1.0176001 -0.067299999 0.14049999
1.5364 -0.37239999 0.34020001
-0.2227 -0.76709998 -0.42160001
-0.082599998 -0.80409998 -0.3466
-3.6401999 -0.52749997 0.12899999
-2.5013001 -0.48280001 -0.70289999
-2.4819 -0.59630001 -0.51730001
-1.3657 -0.37029999 -2.6505001
1.5129 -0.1513 -0.20039999
-1.272 -0.49720001 -0.78979999
-1.8072 -0.50870001 0.2221
-0.84710002 -0.57260001 1.7136
-1.6632 -0.78140002 -0.62690002
-2.8701999 -0.84649998 0.40529999
0.34729999 -0.65490001 -0.2282
-0.99690002 -0.57359999 1.7740999
-0.3439 -0.66439998 -0.46970001
0.15620001 -0.71329999 -0.49329999
-0.15970001 -0.56800002 1.2258
2.2939 -0.053100001 0.1672
-0.3186 -0.1972 0.040899999
-1.3213 -0.44639999 0.27399999
-0.2227 -0.7295 0.32710001
0.2476 -0.81050003 0.2613
-0.40799999 -0.33539999 0.37720001
-0.52499998 -0.33500001 0.25459999
-0.50819999 -0.33840001 0.35089999
-0.38010001 -0.33809999 0.46689999
2.9893999 -0.62519997 0.0898
-0.63209999 -0.31299999 -0.1955
-2.9572999 -0.74000001 0.34
-2.7839 -0.57239997 0.93919998
-3.0727999 -0.56370002 1.3099
-3.0813 -0.56370002 1.3855
-3.1331999 -0.56230003 1.4718
-2.8501999 -0.56989998 0.921
-3.0230999 -0.56379998 0.96329999
-3.2103 -0.55729997 1.028
-0.15620001 -0.4208 0.64099997
-0.86580002 -0.66430002 0.25139999
-2.9223001 -0.39289999 0.44010001
-1.1526 -0.56840003 0.30899999
-1.271 -0.6706 -0.29660001
2.4043 -0.113 -0.081
-2.8355999 -0.84969997 0.46950001
2.2358999 0.1126 0.0361
2.0848 -0.1312 -0.1674
-1.0359 -0.84750003 0.5632
2.677 -0.1867 -0.1699
0.096500002 -0.7051 -0.047899999
-1.3331 -0.60030001 -0.66790003
-0.2229 -0.32550001 0.3272
-0.18099999 -0.32370001 0.32519999
-0.16249999 -0.32839999 0.4526
-0.236 -0.33270001 0.4806
-0.063500002 -0.4862 0.4962
-1.1205 -0.60890001 -1.7237
-3.2021 -0.77640003 0.3838
-3.2553 -0.64819998 0.60149997
0.72000003 -0.48949999 -0.3459
0.75050002 -0.4919 -0.3141
-3.1154001 -0.7974 0.53240001
2.8652999 -0.3793 0.2281
2.6127 -0.52950001 -0.1902
-1.3721 -0.78719997 -0.48750001
-2.7860999 -0.73830003 -0.2403
-0.043900002 -0.72009999 -0.55260003
-0.32449999 -0.55400002 -1.2258
-2.0074999 -0.46259999 0.78200001
-2.9700999 -0.47670001 -0.52560002
3.8461001 -0.53490001 0.085500002
-0.91049999 -0.65240002 -1.2713
-1.109 -0.6552 0.26640001
0.65530002 -0.4946 0.44240001
-0.5758 -0.55250001 0.23280001
-1.1848 -0.45370001 0.27000001
3.7821 -0.54460001 -0.1028
-1.5933 -0.40970001 -0.75480002
0.1744 -0.4874 -0.38749999
-0.2859 -0.50639999 -0.30590001
0.031399999 -0.4964 -0.33160001
-0.1276 -0.49860001 -0.34729999
-0.88730001 -0.86669999 0.36559999
-1.0664001 -0.4702 2.2074001
-3.6066 -0.49000001 0.12899999
2.3269 0.095600002 0.00060000003
0.53030002 -0.484 -0.35690001
0.43650001 -0.48989999 -0.33250001
0.68489999 -0.34349999 -0.53359997
-1.0016 -0.78530002 0.60540003
-2.6257 -0.8405 0.3434
2.1447001 0.1132 0.071400002
-1.2255 -0.56349999 0.48410001
-0.74519998 -0.61830002 -0.53640002
-0.9928 -0.63300002 -0.5521
-1.6210001 -0.37990001 -0.45280001
-1.7237 -0.56559998 -0.45730001
-0.96710002 -0.43560001 0.54890001
-2.098 -0.85009998 0.52569997
-0.90939999 -0.53289998 0.2401
-2.0321 -0.73070002 -0.2177
-1.3710999 -0.57969999 -0.3391
0.1046 -0.60960001 -1.2634
-2.1171 0.4359 -0.79610002
-1.9170001 -0.096600004 -0.80449998
-1.7075 -0.070100002 -0.80409998
-1.6315 -0.2924 -0.8075
-1.7107 -0.52380002 -0.21780001
-1.7691 -0.61189997 -0.4666
0.85890001 -0.74769998 0.0255
-0.1846 -0.83410001 0.5097
-1.1508 -0.73070002 0.2863
-3.3299999 -0.7841 -0.4632
-1.4263999 -0.38859999 2.6329999
-2.6006 -0.53490001 -1.2543
-0.9702 -0.5298 1.71
-3.2379999 -0.54659998 -1.6371
-3.2126 -0.54629999 -1.5028
-3.0386 -0.53979999 -1.5427001
2.1163001 -0.084600002 0.083999999
0.31439999 -0.57819998 0.2465
-3.1356001 -0.56120002 -1.2776
-3.1719999 -0.55769998 -0.82370001
-3.1199 -0.56199998 -1.3144
-2.9008999 -0.56809998 -0.94150001
-3.0710001 -0.56199998 -0.95209998
-3.1531 -0.56089997 -1.3316
-2.9993999 -0.56519997 -1.0682
-0.2872 -0.5614 0.55549997
-1.0416 -0.6304 1.7561001
-0.66570002 -0.54189998 0.044799998
-1.0967 -0.55309999 0.0263
-1.6059 -0.41839999 0.47240001
-0.1258 -0.79000002 0.3872
-0.2071 -0.77219999 0.40669999
-2.7414 -0.4774 -0.2579
0.019300001 -0.72680002 -0.0196
2.4744999 -0.5104 0.2013
-1.9062001 -0.4853 -2.2572999
0.061299998 -0.4012 0.7798
-0.40720001 -0.44510001 0.68720001
-1.9165 -0.82969999 0.5751
-0.53509998 -0.4447 -0.4447
-2.2042 -0.60650003 -0.68519998
2.9149001 -0.44 -0.2209
-1.0913 -0.59329998 -1.7121
-1.427 -0.43740001 -0.75410002
-0.88569999 -0.55019999 -0.50849998
1.4184999 -0.22759999 0.2256
0.79479998 -0.50389999 0.18340001
-0.94620001 -0.61360002 0.2217
-1.0046999 -0.50639999 0.79350001
-2.6135001 -0.52829999 -0.2233
-0.5169 -0.83990002 0.5614
-3.2056 -0.736 0.58630002
1.7558 -0.061099999 0.1371
-1.8382 -0.373 2.6905
0.93040001 -0.060199998 -0.1259
0.4716 -0.53060001 -0.34079999
-0.48879999 -0.62449998 -0.25490001
-2.7147999 -0.82679999 -0.55720001
-2.3304999 -0.61570001 -0.6304
-0.76910001 -0.73040003 -0.58719999
-0.97310001 -0.42989999 -1.3322001
-1.6825 -0.41479999 -2.4679999
-0.81370002 -0.43340001 -1.0683
-1.7349 -0.41389999 -2.5336001
-1.0311 -0.43000001 -1.3286
0.080499999 -0.70270002 0.25510001
-1.4651999 -0.6674 -0.2131
-1.2216001 -0.528 -0.78130001
-3.4872999 -0.61199999 -0.017899999
-3.7269001 -0.54339999 -0.1251
0.1617 -0.33149999 -0.52090001
-0.073600002 -0.324 -0.32949999
-0.074000001 -0.32890001 -0.38330001
-0.29660001 -0.3272 -0.26230001
2.8606999 -0.3696 -0.22660001
1.0634 -0.32280001 0.38100001
-2.1517999 -0.60049999 0.68529999
-2.0780001 -0.77869999 -0.80739999
-0.77149999 -0.62650001 0.2252
-2.8131001 -0.41 -0.54699999
-1.7872 -0.47330001 0.64630002
-1.9184999 -0.49270001 -0.6584
-1.0326 -0.57950002 0.7062
-1.4207 -0.38190001 -2.3878
-0.30379999 -0.38850001 -1.2388
-0.59759998 -0.39019999 -1.5637
-1.0012 -0.37490001 -1.8933001
-0.8484 -0.3872 -1.8118
-1.0207 -0.38780001 -2.0000999
-2.9203999 -0.84390002 0.4294
-0.5352 -0.6656 -1.2304
-1.9381 -0.76990002 0.24429999
-2.6301 -0.57130003 0.2132
-0.73119998 -0.3872 -0.81870002
-1.2733999 -0.36770001 -0.66339999
-1.5880001 -0.52460003 -0.35550001
-1.939 -0.52380002 -0.36570001
-1.5930001 -0.51029998 -0.4941
-0.90570003 -0.40200001 -0.77280003
0.2128 -0.59200001 0.4765
-1.4897 -0.39219999 2.5583
-1.4562 -0.3874 2.4906001
0.21610001 -0.66759998 -0.0136
-1.2254 -0.421 1.1529
-1.6129 -0.41260001 1.7309999
-0.77039999 -0.4348 0.86830002
-1.5673 -0.41170001 1.467
-1.6258 -0.4127 1.7905999
-0.898 -0.43200001 1.0559
-1.5868 -0.41530001 1.9046
-1.6993001 -0.41370001 2.164
-1.2407 -0.41839999 0.94510001
-0.87699997 -0.42919999 0.69580001
-0.97780001 -0.43110001 1.2601
-0.65149999 -0.4375 0.69980001
-1.7022001 -0.4093 1.7198
-1.0611 -0.42910001 1.3664
-1.4645 -0.41460001 1.3836
-1.0562 -0.4267 1.102
-1.5602 -0.4082 1.0884
-1.2206 -0.42320001 1.3566
-1.7478 -0.40419999 1.3764
-1.7306 -0.40740001 1.6403
-1.4554 -0.40920001 0.80159998
-1.2013 -0.417 0.64709997
-0.84799999 -0.43340001 1.0182
-2.9261999 -0.56029999 1.6868
1.7797 -0.092 -0.117
-0.81590003 -0.6954 0.5952
-0.8283 -0.4878 0.5862
2.4224 -0.088699996 -0.15260001
-2.3775001 -0.65939999 0.2045
-2.2735 -0.61619997 0.50220001
-2.4340999 -0.56840003 0.1559
-2.7140999 -0.58939999 0.034299999
-3.2825999 -0.45750001 -0.45280001
-2.4261999 0.62760001 0.79170001
-2.513 0.64319998 0.78860003
-2.3355 0.46200001 0.79449999
-1.3735 -0.51380002 -1.7372
2.5129001 -0.58700001 -0.095899999
0.7888 -0.43900001 0.45919999
-1.3206 -0.49950001 -0.2396
-1.1528 -0.4885 -1.2258
-2.3626001 -0.4206 0.58740002
-1.4211 -0.58420002 -0.66839999
-0.63730001 -0.4779 -1.253
2.4528 -0.1655 0.0013
-1.7683001 -0.37020001 -2.6666
-1.101 -0.4691 -1.7372
