# .PCD v0.7 - Point Cloud Data file format
VERSION 0.7
FIELDS x y z
SIZE 4 4 4
TYPE F F F
COUNT 1 1 1
WIDTH 562
HEIGHT 1
VIEWPOINT 0 0 0 1 0 0 0
POINTS 562
DATA ascii
-1.9955664 -0.4788 1.160332
-2.0123248 -0.54629999 1.1780803
-2.0661356 -0.54299998 1.1592005
-1.904279 -0.5201 1.1663423
-1.9597163 -0.51700002 1.072863
-2.0657115 -0.53280002 1.0716608
-1.8690653 -0.43620002 1.1200976
-1.9452205 -0.50059998 1.0314972
-1.8994708 -0.48130003 1.047407
-1.8539331 -0.52679998 1.1557357
-1.9376543 -0.61089998 1.2390329
-2.1301289 -0.57740003 1.1524832
-2.0014355 -0.63630003 1.2179611
-1.8586707 -0.4183 1.2379723
-2.1020567 -0.59390002 1.0949953
-2.0174868 -0.64719999 1.1232796
-1.9516551 -0.65000004 1.1423006
-1.9207547 -0.64630002 1.1891819
-2.1211488 -0.54519999 1.0330528
-2.16308 -0.57160002 1.0994499
-2.1114612 -0.43430001 0.99889952
-1.8931067 -0.65360004 1.1298556
-2.0382757 -0.65079999 1.0483263
-2.1635752 -0.58149999 1.2327397
-2.1878288 -0.53579998 1.0937933
-1.968272 -0.65799999 1.0363053
-2.0266085 -0.67540002 1.0629632
-1.7753735 -0.41870001 1.1395431
-1.7667468 -0.53030002 1.1587763
-2.0285883 -0.4145 0.93342143
-1.7654033 -0.5223 1.205092
-2.0642266 -0.3549 0.96679693
-2.1490793 -0.3337 1.0458515
-2.2036679 -0.58630002 1.0776712
-1.7916369 -0.48360002 1.0095768
-1.7612313 -0.5165 1.2641352
-1.737119 -0.42360002 1.1500788
-1.8936722 -0.66570002 1.0021521
-1.8133452 -0.53299999 1.3513216
-2.1067944 -0.65689999 0.98489887
-2.1295631 -0.71720004 1.1772318
-2.022083 -0.65630001 0.95010906
-2.1187444 -0.62830001 0.95965511
-1.7662518 -0.46190003 1.322613
-2.2529533 -0.59210002 1.14223
-2.1483016 -0.27419999 1.0377197
-1.763494 -0.55660003 1.3048646
-1.960494 -0.49180001 0.87664086
-1.7073499 -0.50599998 1.1750399
-2.0810559 -0.67699999 0.96099871
-2.1733329 -0.25740001 1.0686909
-1.7055821 -0.55129999 1.1820402
-2.1759493 -0.46000001 1.4023746
-1.8004756 -0.52429998 1.3900709
-2.2054358 -0.57859999 0.96064502
-2.2330837 -0.62779999 1.0341134
-1.7197242 -0.50879997 1.2929144
-2.2960162 -0.54269999 1.1831715
-2.0077994 -0.5801 0.86964053
-1.8808031 -0.65130001 0.91517812
-2.2374678 -0.65030003 1.2852776
-1.6953996 -0.53200001 1.0550438
-2.3023803 -0.58810002 1.2066475
-1.7581201 -0.46240002 0.92967373
-2.2942483 -0.62010002 1.1866363
-2.2589638 -0.55449998 1.3535842
-1.9170067 -0.46070001 0.83216375
-1.7628576 -0.57870001 1.3878082
-2.0659943 -0.21709999 0.94904834
-1.7091881 -0.64179999 1.0404066
-1.7199363 -0.53109998 1.3709084
-1.9930208 -0.2807 0.87084252
-1.6558723 -0.49590001 1.0631754
-1.9087338 -0.4905 1.5035616
-2.3254318 -0.5891 1.2287092
-1.9116328 -0.6092 0.83895189
-2.0612566 -0.75470001 0.94247252
-2.1685247 -0.6268 0.88371164
-1.9204717 -0.49330002 0.80734426
-2.1363513 -0.78350002 1.0114858
-2.0780859 -0.62720001 0.83258802
-1.8431141 -0.65650004 0.87409526
-1.6533976 -0.41930002 1.0116274
-1.9128349 -0.32160002 0.82615334
-1.899895 -0.80019999 0.98334318
-1.9392099 -0.59210002 0.79624271
-2.0069509 -0.5783 0.78648472
-1.8059206 -0.5783 1.4901266
-1.6570038 -0.61250001 0.9954347
-1.6561552 -0.5248 0.95074552
-1.9208252 -0.52740002 1.5560997
-1.595839 -0.465 1.0875707
-1.8495488 -0.57780004 1.5273911
-2.3582416 -0.59930003 1.3142691
-1.9233708 -0.28470001 0.79595983
-2.3999608 -0.58539999 1.1930709
-1.6764492 -0.63940001 1.3834242
-1.592162 -0.4754 1.2876819
-2.074126 -0.8409 0.95435172
-1.8339927 -0.4612 0.76725143
-1.8663781 -0.60210001 1.5563824
-1.6902378 -0.44780001 0.85245782
-2.1337352 -0.86390001 1.0087283
-2.0073752 -0.89710003 1.288672
-2.2468722 -0.79190004 1.3443213
-1.7526753 -0.60330003 1.5090063
-2.3426144 -0.62520003 0.92528981
-1.5514327 -0.46980003 1.203112
-1.9534228 -0.58710003 0.7291382
-2.1136532 -0.8768 1.3256534
-1.7300478 -0.4436 0.80204099
-1.8738735 -0.5223 0.73203743
-1.7369776 -0.5571 0.80260664
-1.8929653 -0.2194 0.80812222
-1.9855962 -0.1162 0.89467198
-2.2064259 -0.079099998 1.0995208
-2.2401545 -0.45910001 1.5447857
-1.8851871 -0.90890002 1.2784896
-1.5421696 -0.53719997 1.2149205
-2.2718329 -0.52670002 1.5285224
-2.2779849 -0.78119999 1.3679384
-1.8467205 -0.493 0.72157234
-1.9047034 -0.75270003 0.79694998
-1.6460435 -0.44770002 0.85210425
-2.1245427 -0.88499999 1.3550692
-1.9027233 -0.2297 0.77347398
-1.8132036 -0.91119999 1.1738377
-1.7924855 -0.75959998 1.4823484
-2.1932735 -0.53579998 1.5889802
-1.9525743 -0.90350002 1.3713325
-2.3028045 -0.65780002 1.4794493
-1.8765604 -0.66000003 0.73203743
-1.8035161 -0.41760001 0.72418857
-2.463459 -0.58490002 1.1277344
-1.8786111 -0.1886 0.79489928
-1.7135017 -0.4718 1.5510085
-1.7813839 -0.91030002 1.1302799
-1.6087084 -0.46310002 1.4508822
-1.9187746 -0.61210001 0.69958121
-1.7605242 -0.84170002 1.3856162
-1.8249416 -0.68340003 0.74745238
-2.0335381 -0.0407 0.93950242
-1.8767724 -0.7295 1.5670598
-1.8757119 -0.69240004 0.73104745
-2.4745605 -0.58780003 1.2191632
-2.313199 -0.76980001 1.4048495
-1.6983695 -0.69029999 0.8215571
-1.8332148 -0.38010001 0.69929844
-1.851953 -0.84460002 1.4692669
-1.8383768 -0.22389999 0.75735182
-2.0604789 -0.90500003 1.4239414
-2.224457 -0.69270003 1.5577967
-2.0053246 -0.60549998 0.6688928
-2.0957634 -0.0011 0.99762684
-1.722199 -0.91299999 1.1077232
-1.481712 -0.4747 1.0932275
-1.506178 -0.63960004 1.2205068
-1.6005766 -0.685 0.89446002
-1.7425636 -0.88459998 0.95569533
-1.9145319 -0.8107 1.5588573
-1.81285 -0.68010002 0.70948076
-1.8940966 -0.50749999 1.6813989
-1.4818534 -0.43940002 1.0261937
-2.5169868 -0.61809999 1.1855049
-1.9399879 -0.78830004 1.6001523
-2.4549739 -0.62370002 0.91475385
-2.5244823 -0.58840001 1.2024755
-1.8014657 -0.3725 0.6651451
-1.7197242 -0.69389999 0.74575531
-1.4854596 -0.42990002 0.97620136
-2.372525 -0.72820002 1.4645998
-2.1470997 -0.89840001 1.474924
-2.1236942 0.033899996 1.0100009
-2.5148656 -0.59119999 1.3034503
-1.5988796 -0.63 1.5106328
-1.7176735 -0.87040001 0.89035875
-2.5046835 -0.59200001 1.3382401
-1.7215627 -0.83670002 0.83683079
-1.7776361 -0.64060003 0.67525673
-1.5087942 -0.45900002 0.89106578
-1.5563117 -0.67910004 0.87211531
-2.0210223 0.035699997 0.92825943
-1.5697467 -0.47870001 0.78867674
-1.4927428 -0.74510002 1.2011321
-1.4673578 -0.42860001 0.95074552
-1.8194969 -0.78890002 0.71344048
-2.101774 -0.69120002 1.6804798
-1.7232597 -0.50410002 0.65764982
-2.1212194 -0.59600002 1.7068549
-1.4385078 -0.61150002 1.2084153
-2.3881521 -0.58060002 1.5679083
-2.0115473 -0.56410003 1.728846
-2.1429274 0.064799994 1.0416794
-2.340493 -0.59030002 0.70976347
-1.514239 -0.79910004 1.1862828
-1.8152544 -0.74050003 0.67129701
-1.6728429 -0.89270002 0.90393513
-1.7919905 -0.6674 0.64619476
-1.6650647 -0.62220001 0.69901556
-2.4891977 -0.62290001 0.87798434
-1.7673124 -0.36750001 0.62844628
-1.7476549 -0.44800001 1.695329
-2.3710403 -0.7414 1.5335431
-1.7663932 -0.52520001 0.61593044
-1.4329923 -0.45430002 0.97224158
-2.4075267 -0.72390002 1.5107739
-2.1235528 -0.77829999 1.6587008
-1.8402858 -0.82870001 0.69844985
-1.4155267 -0.61500001 1.2318205
-2.0295784 -0.73710001 1.7033193
-1.4874396 -0.67900002 0.9054907
-1.6221434 -0.54269999 0.6910252
-1.9098651 -0.95100003 0.79150516
-2.3820002 -0.59149998 0.70361179
-2.3811519 -0.49380001 1.63176
-2.2274976 -0.52780002 1.7246032
-1.401526 -0.62889999 1.1174104
-2.2086885 0.095799997 1.101218
-1.436245 -0.62720001 1.3724639
-1.3788987 -0.46080002 1.126603
-1.553342 -0.4375 1.5912429
-1.4296689 -0.57380003 0.91249114
-1.5499477 -0.4747 0.71824884
-2.4257703 -0.52700001 1.6152844
-2.5509284 -0.62239999 0.89969248
-2.098309 -0.85089999 1.65863
-2.411911 -0.72369999 1.5680499
-1.3635544 -0.4501 1.1788582
-1.5034908 -0.43080002 0.76230162
-2.0378516 -0.55309999 1.7913541
-1.7581908 -0.2383 0.61847609
-1.8706207 -0.6376 1.7665347
-1.5862224 -0.52719998 0.66641796
-2.217386 -0.88330001 1.613941
-2.1367757 0.14490001 1.0362347
-2.6314676 -0.58680004 1.0640948
-2.0261135 0.12090001 0.90464216
-1.3834949 -0.57999998 0.95102841
-2.4078097 -0.60640001 0.66776156
-2.3953645 -0.7755 1.5864345
-1.918987 -0.4598 1.8112237
-1.6067284 -0.61110002 0.6478917
-1.7356341 -0.1409 0.65998328
-1.3856869 -0.4339 0.91758233
-1.8548522 -0.0073000006 0.72107726
-2.1513422 -0.60070002 1.7924148
-1.3972834 -0.4483 0.87756008
-1.6547409 -0.45880002 0.58729261
-1.4381542 -0.84009999 1.0720143
-1.4617009 -0.6645 0.79843479
-1.6949047 -0.63940001 1.7434121
-1.5555339 -0.5 0.64789176
-2.6447613 -0.61199999 1.2982886
-2.5258257 -0.58490002 0.75197786
-2.4844601 -0.59790003 1.6159917
-1.3908486 -0.78070003 1.0829744
-2.1299875 -0.77020001 1.762009
-2.267873 -0.83329999 1.675459
-1.6086377 -0.86339998 0.75077575
-2.1035416 -0.58719999 1.8297498
-2.6396701 -0.58399999 0.94388658
-1.4551955 -0.88150001 1.0115567
-2.2113049 0.17460001 1.1036927
-1.3924044 -0.62830001 1.4650949
-1.6893892 -0.5316 0.54133081
-2.6762273 -0.61519998 1.1655643
-2.0087187 0.16060001 0.88583332
-2.2383163 -0.86760002 1.6846516
-2.2003448 -0.78850001 1.7499177
-1.318229 -0.6243 1.2642059
-1.7507662 -0.64120001 1.7980009
-1.3339267 -0.42650002 1.391768
-1.4147489 -0.72409999 0.84142691
-2.443377 -0.76530004 1.6259617
-2.1586959 -0.71240002 1.8092439
-1.4107184 -0.44260001 0.760746
-2.6253865 -0.60769999 1.4604987
-1.5474023 -0.4727 1.7122995
-1.7893741 -0.94330001 0.66168028
-2.1654136 -0.75580001 1.7981423
-1.724391 -0.14660001 0.58665633
-1.6249719 -0.37200001 0.55441219
-2.675308 -0.59640002 1.3603723
-1.3384522 -0.62650001 1.4115671
-1.6318307 -0.44680002 0.54034072
-2.211729 -0.71890002 1.8083954
-1.57802 -0.68349999 0.60461682
-1.9598575 0.169 0.83329517
-1.3520993 -0.62400001 1.4742874
-1.670651 -0.63550001 0.52400666
-2.6302655 -0.5855 0.81017286
-2.7063501 -0.61790001 1.0473363
-1.4488314 -0.45560002 0.67073125
-2.5867784 -0.58579999 0.73656297
-1.2731862 -0.62080002 1.2009199
-2.4201133 -0.83280003 1.6526196
-2.352514 -0.5147 1.8086073
-2.7253711 -0.59460002 1.2616602
-2.0459125 0.23670001 0.95215994
-1.400324 -0.88190001 0.95640248
-2.2955918 -0.82660002 1.7518268
-1.4658728 -0.4375 0.63247687
-1.6186786 -0.2728 0.54599768
-1.4869446 -0.91100001 0.80133384
-2.0845912 0.2509 0.96707982
-1.5557461 -0.75020003 0.60044485
-1.7996272 0.069000006 0.66670078
-1.4109305 -0.61840004 1.6314064
-1.2520437 -0.62709999 1.2647717
-2.2649033 -0.58579999 1.8703377
-2.1516957 -0.5977 1.9025111
-1.3749388 -0.74290001 0.79171723
-2.2508318 -0.62150002 1.8726714
-1.3327954 -0.44070002 0.76696855
-1.2280021 -0.4156 1.2524679
-1.3808786 -0.66189998 0.72100657
-1.5565945 -0.61720002 1.7889498
-2.2810962 -0.83600003 1.7917783
-1.6716409 -0.14560001 0.5339061
-2.4413266 -0.50749999 1.8009706
-2.0807726 -0.639 1.9205425
-2.4858744 -0.78619999 1.6858537
-1.7961624 -0.46460003 1.9166534
-1.3610796 -0.87720001 0.92974442
-1.2478011 -0.56510001 0.94049245
-1.2144256 -0.41500002 1.1292899
-1.4125569 -0.43940002 0.63686091
-1.7836466 -0.6376 1.9014506
-1.5262597 -0.82359999 0.62922412
-1.2796209 -0.44860002 0.82990104
-1.4857426 -0.52429998 1.763494
-1.9512308 0.2359 0.82367831
-2.2687218 -0.67570001 1.8768432
-2.4963396 -0.5176 1.7724036
-1.618325 -0.60659999 1.8481348
-1.9502409 0.2588 0.86327654
-1.7155522 -0.49620003 1.9061882
-2.7815864 -0.61150002 1.2099708
-2.3213305 -0.5557 1.8875914
-1.8192847 -0.4655 1.9421799
-1.2108902 -0.44870001 0.98716158
-1.4525084 -0.68120003 0.60171759
-1.5053294 -0.64280003 0.54323989
-1.6930662 -0.61320001 1.8991172
-1.234861 -0.50319999 0.88102478
-1.2549429 -0.61519998 1.4625494
-1.4398513 -0.44870001 0.56784731
-1.3421999 -0.61559999 0.69548005
-2.8037896 -0.6117 1.1881919
-1.2378309 -0.58430004 0.86334711
-1.3798885 -0.90990001 0.82975966
-1.5090063 -0.62130004 1.8105166
-1.3051474 -0.42850003 0.70933926
-1.3280575 -0.57920003 1.6370633
-1.3470082 -0.50989997 1.6731257
-1.4105062 -0.6767 0.60822302
-2.4139616 -0.51230001 1.8747218
-2.3660195 -0.54079998 1.9025819
-2.0488822 0.31959999 0.92825967
-1.8392251 0.23310001 0.75537199
-1.1771611 -0.6146 1.0695394
-1.597041 -0.55050004 1.8902075
-1.8155372 0.2165 0.73196667
-1.2562864 -0.7967 0.92932016
-2.7276342 -0.58710003 0.76781696
-1.336543 -0.7094 1.6257497
-2.7402208 -0.6189 0.79383868
-1.3286941 -0.60949999 1.6601858
-2.4607012 -0.82870001 1.7714136
-1.6390432 -0.57990003 1.9210374
-1.9010262 0.29089999 0.81590039
-1.5703125 -0.45100001 0.42253685
-1.6029807 -0.45110002 0.39948505
-2.1579888 0.35709998 1.0455686
-1.4289618 -0.77000004 1.7375431
-2.8361042 -0.59810001 1.298147
-1.299632 -0.50569999 1.6663376
-2.8286092 -0.6067 1.3388765
-1.569181 -0.13500001 0.49338889
-2.3249366 -0.71880001 1.921603
-1.8891468 -0.4481 0.30353075
-2.2160423 -0.6081 1.9866569
-2.8153155 -0.61930001 0.91715795
-2.0548928 -0.4483 2.0263255
-1.3021069 -0.61430001 0.65453851
-1.3864647 -0.43510002 0.54161352
-2.3266337 -0.6753 1.9399879
-1.2347903 -0.51950002 1.5798583
-1.5136025 -0.4454 0.43639618
-1.6298507 -0.616 1.9381492
-1.5796463 -0.2164 0.4403559
-1.4477707 -0.493 1.8403563
-1.3010461 -0.4325 0.62858772
-1.5065315 -0.40000001 0.43667895
-1.9229467 -0.4488 0.28670162
-2.8143253 -0.61900002 0.87557989
-1.864186 -0.63800001 2.0139511
-1.4988947 -0.55770004 0.43993169
-1.4542056 -0.44530001 0.46878165
-1.9471297 -0.64710003 2.0234971
-1.1727064 -0.63080001 0.8844896
-2.8368821 -0.60100001 1.39396
-1.6191735 -0.056200001 0.48341876
-1.1343811 -0.46350002 1.3571198
-1.1509981 -0.60339999 0.92981511
-1.3406441 -0.52039999 1.7533116
-1.3859698 -0.52490002 0.52075404
-1.7433414 0.16960001 0.61267781
-1.174262 -0.5183 0.82367855
-1.1636553 -0.57380003 0.85563976
-1.2493567 -0.64340001 0.70191467
-2.7408571 -0.59509999 0.68303496
-2.0645094 0.38689998 0.94487649
-1.1179055 -0.6128 1.2970864
-2.4821973 -0.83410001 1.8271337
-1.3311689 -0.42950001 0.55547291
-1.5443616 -0.58600003 0.38767648
-1.4198402 -0.67680001 0.49480313
-1.8266387 0.2782 0.69837916
-1.1351589 -0.44120002 0.88512605
-1.7361289 -0.56620002 2.0232143
-1.266398 -0.42990002 0.62604219
-1.5333309 -0.66290003 0.4035157
-1.3737367 -0.44490001 0.5025813
-1.6080014 -0.76210004 1.9286036
-1.5759693 -0.12010001 0.43880028
-1.0954195 -0.62050003 1.1311992
-1.4146075 -0.44420001 0.4563365
-1.4827018 -0.36250001 0.41200089
-2.4190528 -0.82270002 1.8959353
-2.1304824 0.41889998 1.031497
-1.5246334 -0.34240001 0.38265598
-1.461418 -0.46830001 1.9087338
-1.3320881 -0.83020002 1.6937026
-2.2615798 -0.60900003 2.0333259
-1.4193451 -0.83140004 0.53277475
-2.8479836 -0.58789998 0.82452708
-1.4720954 -0.82620001 1.8371038
-1.0988135 -0.611 0.97874695
-1.3228959 -0.53640002 1.791849
-1.1350176 -0.71900004 1.4171531
-1.2758025 -0.56029999 0.57703966
-1.6772977 -0.55440003 2.0316997
-2.9022191 -0.60519999 1.3342804
-1.2994906 -0.66729999 0.56607956
-1.102915 -0.648 1.3799593
-2.9206038 -0.61120003 1.1138043
-1.4603573 -0.45970002 0.39290899
-1.4858131 -0.44890001 0.36943316
-1.2028997 -0.69700003 0.70127827
-1.1410279 -0.72420001 0.84842712
-1.0638826 -0.61770004 1.1296434
-1.7531703 0.28759998 0.66804433
-1.0783075 -0.4763 1.3801006
-1.0522153 -0.42670003 1.1830301
-1.4557612 -0.40940002 0.38605011
-2.8912585 -0.6182 0.88137835
-1.4742874 -0.24519999 0.40089935
-2.9355235 -0.61199999 1.0766811
-1.4187088 -0.85699999 1.8235981
-1.1188955 -0.48720002 1.5465536
-1.9630396 -0.4508 0.20305078
-1.090187 -0.6002 1.4519428
-1.174262 -0.57460004 0.67150909
-1.1970308 -0.57020003 0.63374954
-1.0602764 -0.41580001 0.93441147
-2.9523528 -0.60879999 1.1736963
-1.3878789 -0.81709999 0.48886347
-1.623204 -0.48810002 2.0529835
-1.4481244 -0.31890002 0.37643343
-2.1765859 -0.65240002 2.0971072
-1.3128549 -0.44280002 0.47168082
-1.0528517 -0.4754 1.4018795
-1.8599434 0.38589999 0.734088
-1.4424677 -0.45550001 0.35833156
-1.4804392 -0.46960002 0.33181489
-1.8581755 0.405 0.770504
-1.9496045 0.43779999 0.82488042
-1.3943843 -0.45540002 0.38972706
-2.9672019 -0.59630001 1.1355126
-1.0434473 -0.61339998 0.96863538
-1.2173955 -0.57530004 0.56798869
-1.0849544 -0.59640002 0.80960697
-1.736341 -0.7396 2.0744796
-2.9711616 -0.61089998 1.0879948
-1.031285 -0.64060003 1.308188
-1.2685901 -0.42750001 1.8330028
-1.2392451 -0.63300002 0.53510827
-1.0089405 -0.4052 1.0710244
-1.0856614 -0.55610001 0.76138234
-2.9846673 -0.6085 1.1577864
-1.4992483 -0.0603 0.39899021
-1.4710345 -0.2396 0.33740115
-1.3029554 -0.45580003 0.4299615
-2.9938598 -0.60960001 1.1155014
-1.0919547 -0.57139999 1.6043243
-0.98709077 -0.4215 1.1159257
-2.146251 0.51559997 1.0465584
-1.2783481 -0.47220001 0.4459421
-1.2357802 -0.70300001 0.52740079
-1.4613473 -0.57319999 0.30126798
-1.8996122 -0.5747 2.1684539
-1.0955609 -0.8434 1.4653777
-2.951292 -0.5891 0.82247645
-1.0042027 -0.59650004 1.3812321
-1.1049656 -0.42820001 0.65439719
-1.3879496 -0.66250002 0.35401815
-1.4138297 -0.89050001 1.8994706
-1.2140014 -0.44300002 0.49345958
-3.0075777 -0.60390002 1.2980764
-1.0044856 -0.44940001 1.436245
-1.1765246 -0.43440002 0.53447181
-2.1257448 -0.65650004 2.1700096
-1.2179612 -0.66220003 0.50364202
-1.822891 0.44679999 0.72800702
-1.4594381 -0.43900001 0.27347875
-1.2395988 -0.41880003 1.8684995
-1.6392553 -0.43960002 0.18643378
-1.1444221 -0.56940001 0.5711
-1.4374471 -0.5115 0.2824589
-1.2429928 -0.89750004 1.7460285
-1.752039 -0.45660001 0.14648227
-1.3108042 -0.45750001 0.37360495
-1.9937279 -0.63190001 2.1927078
-1.0273958 -0.81480002 1.3676556
-1.3784745 -0.54860002 0.31866276
-1.0042028 -0.4323 1.4922478
-1.3920509 -0.48560002 0.30423778
-1.3175925 -0.51620001 0.36158413
-1.0621855 -0.42540002 1.6380532
-1.4311539 -0.55199999 0.27743858
-2.3213305 -0.63139999 2.1486549
-2.9849503 -0.58960003 0.8176679
-1.8245173 -0.60949999 2.1910815
-1.0444371 -0.42950001 0.71096557
-1.6996423 -0.77329999 2.1373415
-1.1391188 -0.43550003 0.53100699
-1.2009907 -0.69670004 0.48370159
-1.0632461 -0.47300002 0.63940638
-1.5926571 -0.43820003 0.17066537
-0.99769741 -0.81990004 1.3431897
-0.92479473 -0.45050001 1.1558771
-2.9853745 -0.61580002 0.77326161
-1.0107789 -0.5625 1.5829697
-1.6507106 -0.79000002 2.1315432
-1.6903086 -0.45840001 0.12632976
-1.3627059 -0.40100002 0.28974211
-1.8374574 0.49669999 0.7267341
-0.92083484 -0.55870003 1.2349317
-1.4074658 -0.51429999 0.25063914
-1.2538115 -0.6631 0.38845438
-2.3753533 -0.58719999 2.1724138
-1.8664486 -0.65640002 2.2303259
-3.0394683 -0.5898 0.85776097
-2.1773636 0.59539998 1.0758326
-1.1939195 -0.9303 0.56996864
-1.0149509 -0.87660003 1.444589
-1.4794493 -0.89710003 2.0321238
-1.9944351 -0.58060002 2.2536604
-1.0715194 -0.60710001 1.7418566
-1.3422706 -0.48740003 0.27581221
-1.5560997 -0.46010002 0.15121995
