# .PCD v0.7 - Point Cloud Data file format
VERSION 0.7
FIELDS x y z
SIZE 4 4 4
TYPE F F F
COUNT 1 1 1
WIDTH 1124
HEIGHT 1
VIEWPOINT 0 0 0 1 0 0 0
POINTS 1124
DATA ascii
-2.5193999 -2.3910487 1.4936064
-2.5014999 -2.417141 1.5062637
-2.4154999 -2.4314244 1.5260628
-2.3973999 -2.3844018 1.4636253
-2.3232999 -2.3339851 1.4307448
-2.2816999 -2.3651686 1.4646151
-2.3703001 -2.2347779 1.3271537
-2.2679 -2.2634864 1.3383259
-2.1791999 -2.3831291 1.4958693
-2.326 -2.186836 1.2662009
-2.1524999 -2.4426675 1.4962935
-2.1719999 -2.2873158 1.3910053
-2.1382 -2.4162216 1.53872
-2.1301999 -2.3740072 1.4397956
-2.4020998 -2.1256714 1.2101275
-2.1317 -2.3114991 1.3785602
-2.0871999 -2.3804419 1.4982734
-2.1345 -2.2476473 1.352468
-2.0525 -2.3536427 1.4612917
-2.0492001 -2.3088121 1.417734
-2.2622001 -2.1923516 1.1015865
-2.1577001 -2.1234794 1.2246231
-2.3007998 -2.051991 1.1326286
-2.0518999 -2.2115848 1.2765247
-2.1372001 -2.2969327 1.0764842
-2.3032999 -2.0242016 1.1055464
-1.9256001 -2.3366013 1.4006927
-2.3362 -1.9867958 1.0759187
-2.1285 -2.1893816 1.0595844
-1.8863001 -2.4183428 1.5388614
-2.0704999 -2.1767244 1.0764842
-2.2342 -1.9904727 1.068989
-1.9735 -2.1606026 1.2225724
-1.9895 -2.1108928 1.2205218
-2.0328 -2.1385407 1.1214563
-1.8573 -2.4363036 1.5303762
-2.0107 -2.2145548 1.0800904
-1.9944 -2.1304798 1.1354569
-1.8296001 -2.3436017 1.4448868
-2.3325 -1.9233682 1.0115012
-1.9187 -2.1557941 1.215077
-1.8525 -2.2537284 1.3156985
-1.9669001 -2.1153476 1.1558217
-1.9993 -2.0727091 1.1376489
-2.1338 -1.9827652 1.0563318
-1.8074 -2.4165044 1.4745146
-1.9068999 -2.1163375 1.2302092
-1.9386001 -2.1014884 1.1627513
-1.9401 -2.1523294 1.1194056
-1.8707001 -2.1444097 1.2575743
-1.7897 -2.3363185 1.431664
-1.7944 -2.300539 1.4060667
-2.0885999 -1.9652288 1.0667969
-1.9377999 -2.0515666 1.1627513
-1.8083 -2.2158983 1.3272244
-1.7595 -2.3955035 1.479818
-2.2620001 -1.8794569 0.97041821
-1.7562001 -2.2850533 1.387187
-1.8905001 -2.046546 1.1599934
-1.7263999 -2.3865936 1.4870303
-1.7361 -2.259244 1.3640646
-2.1015 -1.9162264 0.9893688
-1.8420999 -2.0953364 1.1529224
-2.1292 -1.8992558 0.97409523
-1.8124001 -2.1094079 1.1674181
-1.7161 -2.2428389 1.348084
-1.6868 -2.4179187 1.4735247
-1.7893 -2.0686786 1.183823
-2.2881999 -1.8025943 0.88747454
-2.1236 -1.8272016 0.92424405
-1.9088001 -1.9440863 1.006905
-1.7579 -2.16435 1.0684938
-2.1342001 -1.7783406 0.85586697
-1.8868001 -1.8904171 0.95309412
-1.6533 -2.1739666 1.0931011
-2.0483 -1.7914221 0.86428154
-2.1056001 -1.7375406 0.83373451
-1.5032001 -2.4218078 1.5392148
-1.8074 -1.8866693 0.94538665
-1.4884 -2.3865936 1.4870303
-1.9258001 -1.8079684 0.87432235
-1.5883 -2.1864827 1.0794541
-1.6357 -1.9937959 1.1109203
-1.7105 -1.9174992 1.0366035
-2.1932001 -1.6908715 0.78169143
-2.0022001 -1.755501 0.82666337
-1.7436001 -1.8756385 0.99346983
-1.9979 -1.7181659 0.81959236
-1.9129 -1.765754 0.83224952
-1.7533 -1.8625571 0.91901159
-1.9359 -1.7283481 0.83316875
-1.9009001 -1.9370154 0.69648504
-1.5411 -2.0439298 1.100243
-2.0306001 -1.6979426 0.77179193
-1.6042001 -1.8816489 1.0017431
-2.0529001 -1.6395355 0.73657799
-1.4402001 -2.1849978 1.0996066
-1.9514999 -1.6690925 0.77193332
-1.4572001 -2.0370002 1.1447908
-1.7525001 -1.7562788 0.87128174
-1.4463 -2.1667542 1.0660897
-1.7718999 -1.926621 0.70687956
-1.8945 -1.7921293 0.67746389
-1.7601001 -1.8629106 0.7438612
-1.7808001 -1.7969375 0.77136767
-3.2261999 -1.8389397 0.69655573
-3.1896999 -1.799271 0.67838311
-1.9669001 -1.6443439 0.7159304
-3.1215 -1.7690067 0.62888563
-3.0611999 -1.7394497 0.60470259
-1.6087999 -1.828333 0.87870646
-1.3664 -2.1433492 1.1283859
-1.4875 -1.9365911 0.98993433
-3.2921999 -1.8457985 0.69874775
-1.7004001 -1.8523747 0.71593046
-1.4897001 -1.9067512 0.95924604
-1.6558001 -1.768441 0.82178432
-1.3861001 -2.0034833 1.0681405
-1.8659999 -1.6207266 0.68764627
-1.6003001 -1.8714666 0.73530525
-1.5288 -1.7844924 0.90713215
-3.3195999 -1.7952404 0.6464926
-3.3471999 -1.7869673 0.67159498
-3.1303 -1.704165 0.552306
-1.5734 -1.9427428 0.67350399
-3.1134999 -1.6861339 0.53356761
-1.4625001 -1.8089583 0.9310323
-1.5495 -1.7716231 0.82058227
-3.0434999 -1.6611731 0.50775832
-1.5687001 -1.8069077 0.76139748
-1.3478999 -1.9570265 1.0154608
-3.4205 -1.8052813 0.68849468
-1.8673 -1.5784415 0.64620972
-2.0478001 -1.5090743 0.58744919
-3.3004999 -1.7195092 0.60625815
-3.3501999 -1.7439045 0.62994623
-1.5576 -1.912903 0.64451265
-1.4876001 -1.7374699 0.86138237
-1.5174 -1.8392224 0.72908264
-1.4950001 -1.8831338 0.70242476
-1.3313 -1.8535767 0.97437799
-1.1932 -2.1869068 1.0790298
-2.8474998 -1.555814 0.41046038
-1.6257999 -1.644768 0.69895989
-3.4647999 -1.7644105 0.64493692
-1.3743999 -1.7803912 0.90317237
-2.1526 -1.4254236 0.51072812
-2.0843999 -1.435818 0.52720362
-1.2318001 -1.945147 1.0303103
-3.5297999 -1.7686532 0.64578545
-2.9688001 -1.5191152 0.4125109
-3.4895 -1.7474401 0.60449046
-2.8682001 -1.52258 0.36449844
-1.7644999 -1.5215194 0.58518636
-1.3529999 -1.7856237 0.83486581
-3.6089001 -1.8209791 0.68354499
-1.3169 -1.7792598 0.90204096
-1.3477001 -1.8043622 0.80240965
-1.4642999 -1.6833055 0.72986048
-3.3545001 -1.6587688 0.50987959
-3.1975999 -1.5683298 0.46017006
-1.3415999 -1.9375104 0.69599009
-2.8178999 -1.4654458 0.36068007
-3.4331999 -1.6883259 0.54311359
-1.5815001 -1.5544 0.6742112
-1.2969 -1.9100745 0.74888164
-3.6968999 -1.8426872 0.7119
-1.9428 -1.3963615 0.49425259
-3.3813 -1.6282926 0.48110029
-1.4911001 -1.5722897 0.69719213
-1.8678 -1.4227365 0.49361613
-2.6375 -1.4242923 0.29647478
-3.4243 -1.6376263 0.49241403
-1.2893 -1.7122262 0.83684576
-1.5644 -1.516216 0.63616884
-1.2537 -1.7378942 0.86180663
-3.6250999 -1.7382476 0.61014736
-1.2729 -1.7514704 0.79986405
-1.2702 -1.8337778 0.73452735
-3.6680999 -1.7649056 0.63482547
-1.2902 -1.7296916 0.77751946
-3.3313999 -1.5564505 0.44178525
-1.3003001 -1.8269188 0.67746389
-1.9890001 -1.3547837 0.43315855
-2.9868 -1.4347574 0.33098161
-1.4109001 -1.5858661 0.71373844
-1.3338001 -1.6708603 0.71699107
-3.3727999 -1.5748353 0.42764309
-1.2182 -1.9459249 0.68559551
-1.2531 -1.8738 0.66777647
-2.9977 -1.4521523 0.29166648
-3.0880001 -1.4689107 0.3089906
-1.3934 -1.5671277 0.69556576
-1.8625 -1.3664509 0.43817893
-3.6359999 -1.6955384 0.56064987
-1.5246999 -1.4831942 0.60456121
-1.2066 -1.7427025 0.79081315
-1.5206001 -1.5085087 0.56001341
-1.2125001 -1.893599 0.64797753
-1.1972001 -1.9299443 0.64910883
-3.1257999 -1.4522228 0.29357561
-1.9490001 -1.3026698 0.39843953
-3.5258 -1.5872803 0.46285704
-1.0784 -1.8153222 0.89553553
-1.1471 -1.8665875 0.70680881
-2.5553 -1.3277014 0.20978349
-3.6793001 -1.6626579 0.53102207
-1.8384001 -1.3095288 0.41109678
-1.306 -1.5550362 0.68375707
-1.1515 -1.8842652 0.65731132
-1.5634999 -1.4350402 0.49008062
-2.0620999 -1.2514753 0.34031537
-3.006 -1.3907753 0.22816828
-1.8601999 -1.3082559 0.38097402
-1.1036999 -1.872103 0.73466885
-2.9017 -1.3336411 0.23311794
-1.4911001 -1.4331311 0.55520511
-1.189 -1.6807599 0.72717345
-3.3936 -1.4828407 0.36421561
-2.6259999 -1.2984979 0.19910613
-1.0743001 -1.778694 0.84702802
-3.6124001 -1.5962605 0.46108928
-1.1068001 -1.878467 0.6848886
-2.5267999 -1.2909319 0.17739803
-1.6956 -1.3204889 0.42969373
-2.9507999 -1.3175191 0.21756163
-1.3611 -1.5196102 0.56277114
-2.6478 -1.3129228 0.14762878
-1.1165 -1.6993567 0.74633598
-2.8274 -1.3213375 0.15632617
-1.0643001 -1.7378941 0.79463154
-1.3116 -1.4868711 0.61743045
-2.9342 -1.2976494 0.19839907
-1.0961001 -1.66386 0.78975248
-1.4964001 -1.5110543 0.37248877
-2.4372001 -1.2697188 0.14430541
-1.5752001 -1.3359746 0.45182613
-3.4150999 -1.4493238 0.30552572
-2.0848999 -1.1920784 0.27865568
-1.3592 -1.4738604 0.51786983
-2.0204 -1.194836 0.28480747
-1.5074 -1.35344 0.47311005
-1.0965 -1.6256763 0.75255871
-1.4286001 -1.6071501 0.32603186
-1.2262 -1.5553899 0.59840935
-1.2660999 -1.4813557 0.61205649
-1.0044 -1.829818 0.73848718
-1.4614 -1.3606526 0.48286811
-1.5253999 -1.3629153 0.41753146
-3.0839 -1.3188626 0.15936676
-2.4605 -1.1827445 0.14826521
-3.2598 -1.3341361 0.2208851
-1.0553 -1.622282 0.74916446
-2.2959001 -1.169946 0.16657922
-1.6161001 -1.2695065 0.38182256
-1.3536 -1.5244893 0.39752036
-1.5105 -1.3435407 0.39773247
-2.7783999 -1.2578393 0.090706758
-1.418 -1.5246305 0.32864806
-3.3961 -1.3773403 0.25758389
-2.2103 -1.2306156 0.11580905
-2.9178998 -1.2328076 0.13567865
-2.066 -1.1427224 0.22929963
-2.3515999 -1.2147057 0.093110882
-2.767 -1.1548846 0.15689188
-3.1501999 -1.3042254 0.14826524
-2.4071 -1.1711479 0.11913239
-1.7137001 -1.2380402 0.30467722
-2.4677 -1.2284944 0.06404873
-2.4816999 -1.0488892 0.22937033
-2.4036 -1.0499499 0.23241094
-2.813 -1.2170392 0.10039403
-2.3566999 -1.0498085 0.23495647
-3.0702 -1.2524652 0.14826524
-2.5662999 -1.22807 0.059947573
-2.5207 -1.1362169 0.13695145
-2.3395 -1.2405152 0.055987798
-1.3824999 -1.511832 0.3285774
-2.6183999 -1.075335 0.19571203
-1.4063001 -1.5741988 0.26012948
-2.2300999 -1.2116652 0.095020019
-2.6426001 -1.139116 0.13391092
-2.3555 -0.97110748 0.3140817
-2.8320999 -1.1119632 0.18920666
-2.6475999 -1.1860679 0.089787476
-2.6111 -1.2527481 0.032441072
-2.2246001 -1.1729158 0.1258499
-2.6427999 -1.2445457 0.038946502
-2.6708999 -1.0658598 0.20250025
-1.2778001 -1.445859 0.48619154
-2.2337999 -1.033545 0.25758389
-2.4071 -1.1241961 0.13864851
-0.9727 -1.6823862 0.74393189
-3.0163999 -1.2632134 0.10088905
-2.3722999 -1.1980888 0.07423114
-3.1584001 -1.2655468 0.1569626
-3.0258 -1.2312521 0.12917334
-2.2479999 -0.97860283 0.31196043
-2.8969998 -1.1984423 0.11488976
-2.4709001 -1.1654912 0.092120938
-2.4947999 -1.248647 0.022682987
-2.1838 -1.0504448 0.24223968
-2.2879 -1.2855579 0.0093894228
-2.3313 -0.89926541 0.38762084
-3.3230999 -1.3298227 0.18248916
-2.5994 -1.0386362 0.20242956
-2.3074999 -1.1300651 0.1258499
-3.4222 -1.3478539 0.22640049
-2.5699 -1.2672437 -0.0055305734
-2.9336998 -1.13254 0.16749853
-2.5646999 -0.97923923 0.25970522
-2.4993 -0.99352282 0.24216899
-2.1475999 -1.1200242 0.16375083
-2.6336 -1.3447427 -0.060826279
-2.645 -1.2890227 -0.023491032
-2.0868001 -1.2494247 0.064614438
-2.1373 -0.983199 0.30750564
-1.4126 -1.3058519 0.4294816
-1.3566999 -1.3333583 0.46052352
-1.0337 -1.560693 0.68927252
-2.5820999 -1.3803809 -0.093918897
-2.4161 -1.3902097 -0.099080779
-1.9700999 -1.142298 0.19394431
-2.4721999 -0.92882252 0.30503076
-2.4884 -1.3049326 -0.047461964
-2.7477 -0.87946647 0.38606521
-2.3840001 -1.0716581 0.1496087
-2.1987 -1.3125694 -0.023137517
-1.0608001 -1.5709462 0.61439002
-2.4294 -1.2391009 -0.0025607124
-2.4932001 -0.88759816 0.34710363
-2.3666999 -1.2453942 -0.0044699386
-2.8136001 -1.2086954 0.045239739
-2.1075001 -1.102205 0.16997337
-2.8346999 -0.92047864 0.34038612
-2.5474 -1.3583192 -0.09773729
-1.235 -1.5283077 0.393702
-1.1394 -1.4545563 0.5859642
-2.0350001 -1.0167866 0.27490798
-3.5102999 -1.3709763 0.23283517
-2.0409 -1.0987403 0.18475196
-1.9711001 -1.1905227 0.12408208
-2.8367999 -0.88575971 0.37510505
-2.8964 -0.96651125 0.29081789
-3.0386999 -1.1521976 0.14628527
-2.1717 -1.3203475 -0.040532328
-2.6573 -1.1839466 0.028551959
-2.7983999 -0.83605009 0.42707738
-3.2447 -1.2776382 0.12691054
-2.6833 -1.4208274 -0.13959798
-2.0819001 -0.89431572 0.39356056
-2.3797998 -0.84036344 0.38825724
-2.7553 -1.3861792 -0.11484925
-1.8789001 -1.152339 0.18503478
-2.5144999 -0.79404801 0.44121954
-3.052 -1.1710066 0.11856674
-2.4057 -1.4044932 -0.1456084
-2.1882999 -0.95328844 0.26910976
-0.84329998 -1.8917605 0.70624304
-2.5969999 -0.71661973 0.55768001
-1.6898 -1.1637233 0.27024108
-2.9496 -1.1749663 0.069776319
-2.2932 -1.4289591 -0.15635642
-2.4781001 -0.75331861 0.47982761
-2.4442 -0.75749052 0.47395852
-1.3562 -1.3309541 0.37750921
-2.7256999 -0.7182461 0.54940689
-2.8329 -0.76477373 0.49708095
-0.93080002 -1.6354343 0.69160604
-1.2077 -1.4826993 0.40084377
-2.2663 -0.70912439 0.5730949
-1.8257 -1.1324692 0.19924757
-2.0050001 -0.86369801 0.42332974
-2.1905999 -0.83647436 0.38960072
-2.0139 -1.1577836 0.090636007
-2.566 -0.71131647 0.52607226
-2.4319 -0.72291303 0.50768757
-2.1377001 -0.86016238 0.36520553
-2.2188001 -0.79631066 0.43103722
-2.0785999 -0.9247213 0.29866681
-1.8759999 -1.0708095 0.2225821
-1.3735001 -1.26986 0.39490402
-2.3469999 -0.72977197 0.49969724
-3.2461998 -1.2279994 0.11446553
-2.7904999 -0.72906488 0.51992053
-2.6280999 -0.69088101 0.54961896
-2.0420001 -0.94819725 0.27434233
-2.4089 -1.2009172 -0.046542682
-2.9008999 -0.76095533 0.49396971
-3.0781 -1.1804111 0.069564246
-2.8062999 -1.178714 -0.011328794
-2.9305 -1.1760978 0.019571804
-2.0485001 -0.88632542 0.3381941
-2.131 -0.79765421 0.42969367
-2.4345999 -1.0232213 0.097494923
-1.5407 -1.2141401 0.27243316
-1.1931 -1.5867853 0.29831323
-1.8238001 -1.2318177 0.076705955
-1.6351001 -1.1654204 0.24619943
-2.405 -0.67178917 0.55951846
-1.8949001 -0.9020232 0.37637785
-2.0167 -1.0568795 0.1424669
-2.9066 -1.1591979 0.012430005
-2.3813 -1.192644 -0.059341349
-3.4505 -1.284073 0.1604982
-2.4517999 -1.1591979 -0.040037341
-1.8264 -1.2465963 0.04962378
-2.6122 -1.1705823 -0.052128859
-3.0776 -1.1847245 0.037107997
-1.4786 -1.1976645 0.31577876
-1.3373001 -1.2609506 0.38769153
-2.0044 -0.83873707 0.38733798
-2.2835 -1.1818253 -0.051351048
-2.0569 -1.033545 0.13327453
-2.7412 -0.63593888 0.61007655
-2.2893 -1.1445608 -0.026672997
-1.8817999 -0.87041551 0.39766178
-1.9795001 -1.2197262 -0.0093488768
-1.9102001 -1.0053314 0.21536958
-1.7931001 -0.98539108 0.29300997
-2.1558001 -0.63869655 0.62768352
-2.0668001 -0.69950777 0.54806334
-1.7553999 -1.1061648 0.17746866
-1.8813 -1.0701025 0.14451751
-0.78400004 -1.8911241 0.65045238
-2.7184999 -1.0390605 0.042764895
-3.5388 -1.3042254 0.16820559
-2.4770999 -1.2319591 -0.13005203
-2.1259 -0.64958602 0.59855074
-2.5407 -0.54344928 0.73367882
-2.6348999 -1.0190493 0.045663945
-1.9596 -1.0720117 0.099616252
-0.89039999 -1.5625316 0.68248439
-1.8399 -0.95590466 0.26903901
-0.88710004 -1.5898967 0.64168423
-2.2769001 -1.0425253 0.024875037
-2.0425 -1.192149 -0.046966977
-2.8685 -1.1331056 -0.034734048
-3.5781 -1.306559 0.17251897
-2.0144999 -1.0223727 0.10852578
-1.5362 -1.1422273 0.25624037
-2.4651 -0.51417512 0.76210457
-2.4886 -0.54047942 0.69507086
-2.2841001 -0.56685454 0.66784722
-2.0020001 -1.0558189 0.073806845
-2.1733999 -1.0221605 0.053300761
-2.6215999 -0.5260545 0.71317279
-1.6287999 -1.2197262 0.10308101
-1.6768999 -1.2033215 0.086676203
-0.84060001 -1.5899674 0.69294953
-2.9382 -1.1292166 -0.034097679
-2.2309999 -0.54337859 0.71479905
-2.8487 -0.55044961 0.7118293
-2.1345999 -1.0500913 0.020278864
-2.2163999 -1.2375453 -0.14808324
-1.6185 -1.1643598 0.15010366
-2.5121 -0.50880104 0.72773916
-2.3466001 -0.49946725 0.77101409
-2.1077001 -1.0124025 0.057967655
-2.6355 -0.48511297 0.78847963
-2.9347 -0.56437963 0.69337374
-2.4466999 -1.2434143 -0.18845901
-0.99690002 -1.4173627 0.54961902
-1.8453 -1.20318 -0.022076823
-2.5307 -1.1247618 -0.10841454
-2.0871999 -1.0416768 0.022329472
-1.7307 -1.0973967 0.11863738
-2.5506999 -0.97266316 0.01568269
-2.9400001 -1.222484 -0.13627458
-2.2744999 -0.97464299 0.032936089
-1.6204 -1.1204485 0.15894252
-2.6626 -0.96276367 0.017945401
-1.5866001 -1.2017658 0.094737224
-1.5664001 -1.1311257 0.16778132
-2.161 -0.95477331 0.055634163
-1.198 -1.3021041 0.34116387
-1.7296 -1.0428789 0.14487109
-2.1071 -1.1466821 -0.10318203
-2.6636999 -0.45506093 0.78586328
-0.87529999 -1.5359443 0.57853961
-1.5041001 -1.1180444 0.21932945
-2.3917 -0.94084334 0.023178004
-1.1926 -1.2526066 0.38670158
-0.98570001 -1.4590819 0.46292773
-1.7467 -1.080709 0.088373266
-1.8401999 -1.0107762 0.10640445
-2.6387999 -0.97068322 -0.010763116
-1.9661 -1.2263023 -0.1304763
-1.0165 -1.600291 0.30191946
-1.0136 -1.5431569 0.33854756
-1.7948999 -1.011059 0.11686968
-2.5207 -0.40888688 0.86414003
-1.4031999 -1.1559452 0.24577522
-1.9078 -1.1606828 -0.074332006
-2.3973 -0.41433164 0.83790636
-2.4354999 -1.0962653 -0.14723471
-2.5706 -0.40351287 0.83642149
-2.1839001 -0.93518645 0.024875067
-0.95179999 -1.4763353 0.44567433
-2.3811998 -0.90987206 0.016672604
-0.98140001 -1.5247722 0.35877091
-0.91479999 -1.5741988 0.41526869
-2.6601999 -0.38491598 0.88726246
-2.5241001 -0.37692568 0.89511132
-1.448 -1.136924 0.190833
-1.1006 -1.3266408 0.36357924
-1.9105999 -0.97259241 0.063836657
-2.5830998 -0.94084334 -0.029996462
-3.1085 -1.0241405 0.0038033053
-1.7929001 -1.1596929 -0.053543068
-2.9050999 -0.43179715 0.8214308
-2.2502 -1.0987403 -0.15112385
-2.1019001 -1.113236 -0.13224405
-2.9048998 -0.94374245 0.0067023858
-1.5785 -1.0500206 0.16007388
-3.2372 -1.1629455 -0.070513643
-2.9466 -1.0619 -0.098161526
-2.7261999 -0.36603621 0.90359664
-1.8151 -1.0501621 0.010732912
-1.503 -1.0698903 0.18418622
-1.8087001 -0.97506726 0.084696285
-1.8956001 -1.1345906 -0.097454436
-2.1115999 -0.9177916 0.017662577
-1.148 -1.2764362 0.31351605
-0.83530003 -1.4590819 0.59034824
-2.6480999 -0.88604254 -0.004611291
-2.1671 -0.90428591 0.011652134
-1.4555001 -1.1198827 0.15766966
-1.0687001 -1.3214082 0.35820514
-0.94200003 -1.3608648 0.49467674
-2.4345 -0.8765673 -0.0063083544
-2.2165 -1.2433436 -0.28002939
-1.8749001 -0.95081353 0.056199871
-0.82640004 -1.4983263 0.53979027
-2.3000998 -1.2371211 -0.29346442
-2.813 -0.35281333 0.91243541
-1.7344 -0.97718859 0.08865606
-1.4433 -1.0722945 0.18531764
-1.7130001 -1.0811334 -0.004116334
-0.736 -1.5502987 0.64295709
-2.0733001 -0.9030838 0.0073387846
-2.5734999 -1.0408282 -0.18061012
-1.4895999 -1.0980332 0.11531403
-2.8978999 -1.0371512 -0.13606241
-2.313 -0.89679056 -0.042512216
-2.5504999 -0.92267072 -0.084514387
-2.8188999 -1.0319188 -0.15487149
-1.3840001 -1.1189635 0.17103407
-1.8736 -1.009362 -0.033037014
-1.146 -1.1958261 0.33119372
-2.1808 -1.2369089 -0.30117187
-2.8473001 -0.33273149 0.91696095
-2.2423999 -0.8938207 -0.046330608
-0.85350001 -1.6442732 0.32864815
-1.3324001 -1.0990938 0.22286499
-2.398 -1.2228374 -0.32938546
-2.8604 -0.31908435 0.94390166
-2.3501999 -0.8988412 -0.074544169
-1.9335999 -0.99133074 -0.060119189
-3.1879001 -0.96474349 -0.0019950345
-2.5722001 -0.97909778 -0.15876058
-2.7468998 -0.28655744 0.98250973
-2.8892 -1.0090792 -0.14928535
-0.84329998 -1.5786536 0.36343777
-1.6845 -1.0322015 0.0086115822
-2.3552001 -0.93193376 -0.11965758
-3.0242 -0.89594203 -0.012530901
-2.0675001 -0.888376 -0.026460864
-2.336 -0.949965 -0.13995153
-1.4936001 -1.0130389 0.13850713
-1.2598 -1.1239133 0.22378418
-2.1722 -0.90838712 -0.086494245
-2.3329 -0.98800731 -0.18421638
-1.6029999 -1.0778099 -0.011258073
-3.2572999 -1.1126703 -0.13563818
-1.6573999 -1.1244789 -0.083382972
-1.5882001 -1.1748956 -0.087554939
-1.0838001 -1.2427779 0.2774536
-2.3483 -1.004483 -0.21539983
-1.6166 -1.0284538 0.0047224984
-2.7806001 -0.82523137 -0.046330608
-1.5999999 -1.2131501 -0.13952726
-1.3046999 -1.1691681 0.10301035
-1.4586999 -1.0090084 0.11877885
-2.0831001 -1.0347471 -0.20889443
-1.8930001 -0.88307273 -0.010550983
-2.1500001 -1.0474043 -0.23654231
-2.6466999 -1.1896743 -0.37442815
-2.0036001 -0.88498187 -0.062523343
-1.9877 -1.0171402 -0.17940807
-3.1006999 -1.2217062 -0.3135463
-1.5884001 -1.2275751 -0.1659731
-1.4500999 -1.0275345 0.084837697
-2.4921999 -0.8033818 -0.077514
-1.7955 -1.245182 -0.28413057
-2.8766 -0.23416078 1.0163801
-0.95880002 -1.2389596 0.37602431
-1.5013001 -1.0024323 0.062705241
-1.3626001 -1.0324136 0.14076987
-2.4168999 -0.89848757 -0.17629683
-3.1650999 -1.2219889 -0.30986923
-1.9461 -0.89537632 -0.078857489
-2.2544999 -1.0232213 -0.26652363
-0.77149999 -1.5566626 0.35756877
-2.2825 -0.97923923 -0.23668373
-2.1905 -0.80677587 -0.071291484
-1.5899999 -1.1002959 -0.099363573
-2.1588001 -0.81009924 -0.068675168
-2.1208 -1.1981595 -0.37527665
-1.7821 -0.88986093 -0.015783586
-1.9059 -0.87989068 -0.061816223
-3.2572999 -1.0209585 -0.13740596
-1.8766999 -1.0297266 -0.18605489
-2.776 -0.79913914 -0.08472649
-3.3527999 -1.1688852 -0.21405631
-1.0874 -1.1379139 0.27512014
-1.0967 -1.1615313 0.23849201
-1.9518001 -0.97252166 -0.17311484
-2.1018 -1.0553946 -0.28370634
-1.3257 -1.0828304 0.085827671
-1.7722001 -1.0456365 -0.16788226
-2.7231998 -0.17356175 1.0768379
-2.013 -0.83081746 -0.079493888
-1.3494999 -1.0076649 0.12026378
-1.9386001 -1.0985281 -0.28582764
-0.63740003 -1.4957807 0.58080244
-1.7262001 -0.87083972 -0.0027021244
-1.8975 -0.93893409 -0.14461845
-2.0711 -0.82254434 -0.095120974
-0.73640001 -1.421181 0.46066496
-1.3326001 -1.1591272 -0.010409571
-0.95249999 -1.2041699 0.34208313
-2.796 -1.1596928 -0.40525797
-0.7446 -1.361077 0.49488893
-1.8118 -1.1002959 -0.25040162
-3.2600999 -0.87883008 -0.047037698
-2.4893999 -0.87487024 -0.21250066
-3.2867999 -1.205584 -0.30308107
-0.80660003 -1.352733 0.39037853
-1.0704 -1.1714308 0.20653081
-1.1835001 -1.1425809 0.11206128
-1.8341999 -1.2195848 -0.35413417
-1.8429 -1.1206605 -0.29098955
-1.8245001 -0.97513795 -0.17120564
-0.69930005 -1.5112664 0.40833905
-2.0589001 -0.95788455 -0.23880506
-1.6824 -0.86525357 -0.0037627891
-2.0118999 -0.90831637 -0.18626702
-2.0664001 -1.1789968 -0.40617719
-1.2597001 -1.0271103 0.13815358
-2.3480999 -0.76434946 -0.12630439
-3.5553 -1.1336713 -0.13302186
-1.6894 -1.0899721 -0.21532911
-2.2138 -0.79659355 -0.13959798
-1.0999 -1.0923057 0.22795615
-3.1355999 -1.1828152 -0.36884195
-3.3122001 -0.87960786 -0.055735089
-3.5056 -1.1850073 -0.20585385
-1.1173 -1.1256104 0.16396299
-3.2223001 -0.83901995 -0.066624559
-1.3638999 -0.96778405 0.08646404
-1.7533 -0.94077259 -0.13726452
-3.5925999 -1.0947804 -0.093706705
-3.563 -1.1517732 -0.15946767
-1.5176001 -0.89551777 0.037815116
-1.6046 -1.2432729 -0.29707068
-1.5510001 -0.98341107 -0.074544139
-1.2707 -0.9979068 0.12280934
-1.4172001 -0.94098473 0.057260536
-1.497 -0.91361964 0.0185818
-3.3193998 -1.1477427 -0.30223256
-1.8420999 -0.91496325 -0.17212486
-2.7853 -0.82841337 -0.20946014
-3.4154 -1.1903106 -0.28738329
-1.0218999 -1.1330349 0.23007745
-1.483 -0.9955734 -0.055735119
-0.73720002 -1.3129228 0.44800773
-1.9305999 -1.179209 -0.41049057
-2.1898999 -0.75374287 -0.14101219
-2.6963999 -1.1007909 -0.44775516
-1.3113 -0.96580422 0.088019721
-2.4675999 -0.77297616 -0.19531801
-0.96680003 -1.1600465 0.24860364
-0.72000003 -1.3646123 0.40254077
-3.2783999 -1.1711479 -0.35618478
-1.6540999 -1.2279994 -0.34741667
-1.6784 -0.93603504 -0.14002222
-2.3086998 -0.74829811 -0.16653875
-1.6492 -0.92606473 -0.11859692
-2.0169001 -0.77043056 -0.12757716
-1.0615001 -1.1207314 0.16205379
-3.6343 -1.0307873 -0.063937552
-3.4761999 -0.92910534 -0.077655412
-1.7392001 -1.2041699 -0.38369119
-1.4877 -1.0481114 -0.14179003
-1.9867001 -1.1416616 -0.43135023
-1.3161001 -1.0890529 -0.059553482
-1.8051 -1.188755 -0.40547013
-3.3866999 -1.1415908 -0.3114956
-3.0658998 -1.1253275 -0.42265281
-3.5569999 -0.95434904 -0.066271015
-0.7403 -1.2745271 0.41060182
-3.2572999 -0.99168432 -0.26199815
-1.177 -1.0454952 0.088514678
-2.7705998 -0.78895676 -0.22628927
-3.2203999 -1.150359 -0.39309579
-2.9658999 -0.76944065 -0.17212489
-1.937 -0.93709564 -0.28391847
-3.1701999 -1.1351563 -0.4119755
-2.9256999 -1.0871437 -0.45150274
-1.6236 -0.83484805 -0.068250902
-1.5255001 -0.99076509 -0.15614426
-3.4786999 -1.1681781 -0.31092992
-1.2843001 -0.92846894 0.073029034
-2.322 -1.0493135 -0.46967545
-1.1773 -0.97690576 0.11736461
-1.4161999 -0.89488137 -0.0046819821
-2.6801 -0.75558132 -0.23887578
-1.7211001 -0.80133116 -0.10247491
-2.2695999 -0.82494855 -0.29791918
-1.3216 -1.0677689 -0.10063643
-2.3803999 -0.81992805 -0.3081722
-2.0209999 -0.8439697 -0.26574582
-2.9078999 -0.75954109 -0.21695545
-1.4359 -0.96170294 -0.094555296
-2.5730999 -0.75452065 -0.25945258
-2.3185999 -0.72531718 -0.22628927
-1.3016 -1.2333734 -0.22720847
-1.7116001 -0.92945886 -0.23795652
-1.0847 -1.0151602 0.13200176
-1.1454999 -0.98425967 0.10025259
-1.8343999 -1.0048364 -0.35533625
-0.9016 -1.1449143 0.21027842
-1.4565001 -0.87098116 -0.05219958
-1.6326001 -0.80819005 -0.1
-2.3936999 -0.99592698 -0.4761101
-2.8755 -1.0230799 -0.46819046
-2.6963 -0.81137204 -0.32988039
-2.7184 -0.73825723 -0.26213959
-2.7224 -0.98249185 -0.4708775
-1.7938001 -0.85563695 -0.24333057
-3.1822999 -0.77467322 -0.19489375
-1.3470001 -0.90725577 -0.032612748
-2.6794999 -0.77870375 -0.3196981
-1.4024 -0.89523494 -0.067968078
-1.3359001 -1.2475156 -0.30103049
-2.3211999 -0.70233619 -0.25054303
-1.9412 -0.7218523 -0.18350929
-1.3936 -0.8408584 -0.010904528
-1.2671001 -0.94614661 -0.019884802
-1.4089 -1.2017658 -0.32627416
-3.6282001 -0.90421522 -0.094484575
-2.2764001 -0.96092516 -0.47066537
-3.2572999 -1.0136753 -0.38284275
-1.5592999 -0.78634048 -0.077584721
-2.2381001 -0.96714771 -0.47165534
-1.7165999 -0.86086953 -0.23427954
-1.2653999 -1.0395554 -0.11400075
-2.9228001 -0.98136055 -0.46635199
-1.375 -0.93999481 -0.11781911
-1.2618999 -1.0896186 -0.16081116
-0.98900002 -1.0207464 0.15328562
-1.1749001 -1.0705974 -0.076453365
-3.5535998 -1.1345198 -0.3421841
-0.5187 -1.5035589 0.37998414
-2.6775 -0.86086953 -0.42166284
-2.1071999 -0.76675361 -0.3026568
-2.3385 -0.81137204 -0.38432762
-2.3875 -0.86412227 -0.43198663
-3.5604 -0.85775828 -0.12764788
-2.8218999 -0.91340756 -0.45482621
-1.4498999 -1.2079176 -0.38828743
-1.3587 -0.86956698 -0.064220406
-2.9301 -0.80472529 -0.35321495
-2.2371001 -0.80606878 -0.37916574
-3.6269999 -0.88010287 -0.11590991
-1.1877999 -1.0504448 -0.098020114
-0.81190002 -1.130348 0.22866327
-2.8803999 -0.72425652 -0.29650497
-1.0486 -0.96870327 0.10463666
-1.586 -0.78096652 -0.13995153
-1.8840001 -1.0288074 -0.47448379
-1.2533 -0.86037457 0.011157222
-1.0624 -1.0324136 0.018157534
-3.296 -0.98029983 -0.39260074
-0.46890002 -1.5182667 0.39851025
-1.1283 -1.0094327 -0.030420698
-1.6554 -1.1160643 -0.45708889
-0.59450001 -1.3096702 0.34604293
-1.8496001 -0.806988 -0.30583876
-3.2054999 -0.78386563 -0.27946371
-2.3446 -0.65375793 -0.28101933
-1.6728001 -0.76258171 -0.19185317
-1.5776 -1.0832546 -0.40716714
-3.5021 -1.0703852 -0.37761012
-3.0486999 -0.75049019 -0.30732372
-0.48449999 -1.3802395 0.46526113
-1.9828999 -0.93455005 -0.45998806
-0.9515 -1.0541925 0.085474096
-1.1045001 -0.92868108 0.047785304
-1.6436 -0.72468078 -0.14659831
-3.1057999 -0.80437171 -0.34607315
-1.1159 -1.1625919 -0.17085209
-3.0836 -0.91383183 -0.44322965
-2.5044 -0.75345999 -0.39585343
-2.7340999 -0.76215744 -0.39168155
-1.3470001 -0.91072059 -0.15232587
-1.2051001 -1.1610364 -0.2490581
-0.45970002 -1.5184082 0.36513487
-1.6434 -0.94063115 -0.35406345
-1.9474001 -0.80776584 -0.36573073
-1.5265 -0.77856231 -0.15310374
-1.3540001 -0.79418933 -0.05658365
-1.1819 -0.96099591 -0.080978818
-3.1001999 -0.76569295 -0.33369881
-1.9607999 -0.85549551 -0.41713741
-3.5304 -1.0728601 -0.39366144
-3.5755 -0.83279741 -0.17679179
-0.71880001 -1.1524804 0.24089617
-2.9484999 -0.76724857 -0.3848933
-1.1884 -0.983199 -0.11803124
-1.0691 -1.0551118 -0.076524056
-2.0541 -0.64873755 -0.26765501
-1.14 -1.1060234 -0.18442857
-1.7855999 -0.79305804 -0.32061732
-0.84119999 -1.0348885 0.17732728
-1.5924001 -0.89332575 -0.32033446
-2.2904999 -0.73755014 -0.40836924
-1.6213 -0.75939971 -0.2219052
-3.2774999 -0.90669006 -0.41855159
-3.0339999 -0.75848043 -0.37867075
-1.1288 -1.1260346 -0.21009654
-0.52470005 -1.3079731 0.35679096
-1.6821001 -0.76929921 -0.2715441
-1.9319 -0.64718187 -0.25973541
-1.1752 -1.2462428 -0.33539584
-1.0652001 -1.1928562 -0.21653125
-3.4810998 -0.81830168 -0.26058394
-1.0159 -1.0530611 -0.064008273
-0.42570001 -1.5392678 0.32376912
-3.2410998 -0.75855124 -0.32146585
-0.96100003 -1.0790119 -0.033107735
-2.8878 -0.63134265 -0.31644538
-0.78280002 -1.0494549 0.19146937
-3.4222999 -0.82890832 -0.31234413
-1.0891 -0.86801136 0.021622352
-1.4878001 -1.0669911 -0.43870416
-3.5098 -1.0008767 -0.41529891
-2.5813999 -0.7169733 -0.44478527
-1.7297001 -0.85712188 -0.40886423
-0.98000002 -0.93221664 0.045098297
-1.2867 -0.77283472 -0.074402742
-1.0469 -1.2225547 -0.25726056
-1.4526 -0.87041551 -0.28342354
-1.9184 -0.61889762 -0.27119055
-3.5420001 -0.99323994 -0.40893498
-2.1633999 -0.58177453 -0.30095977
-3.1229 -0.75126797 -0.39521709
-1.7026 -0.8931843 -0.43333015
-1.3247001 -0.80232108 -0.14136577
-0.82960004 -1.1109025 0.033855312
-0.6584 -1.1133773 0.2536948
-1.3899 -1.1123167 -0.43651211
-3.4796999 -0.86072814 -0.34685099
-0.98210001 -1.0405453 -0.07751403
-3.1438 -0.66082907 -0.32019305
-0.50660002 -1.2301915 0.36117503
-1.6410999 -0.93504506 -0.45341197
-0.38150001 -1.5573697 0.29944459
-1.4848001 -0.76173317 -0.2298955
-0.92980003 -0.92726684 0.068574242
-2.0699 -0.57710755 -0.29827273
-1.0124 -0.99903822 -0.094979502
-0.90020001 -1.0616171 -0.039330252
-2.5274 -0.69420445 -0.47108963
-2.6034 -0.69526511 -0.47257456
-2.5102 -0.54514635 -0.33730504
-1.2634001 -1.1587737 -0.42300633
-0.99800003 -0.90803361 -0.01316727
-1.1432 -0.94699514 -0.18209508
-0.59850001 -1.1804818 0.21346045
-3.598 -0.90548795 -0.35823539
-1.4507999 -0.9691276 -0.41423824
-1.0694001 -1.2147765 -0.33348668
-1.6283 -0.76569295 -0.3491137
-3.618 -0.9320752 -0.37916574
-1.1091 -0.8635565 -0.098373659
-1.0750999 -0.96552134 -0.16286179
-1.0462 -1.245677 -0.34628525
-0.83399999 -1.0258375 0.019925289
-1.0404 -0.97824925 -0.14999244
-1.0952001 -1.0288074 -0.23958287
-3.4593999 -0.75543988 -0.33659792
-0.73090005 -1.047475 0.11283913
-2.1338999 -0.68430495 -0.46854407
-1.7439001 -0.60213917 -0.26998845
-2.8064001 -0.54295433 -0.3550534
-2.3367999 -0.52075118 -0.34628528
-1.4094 -1.0531318 -0.4801406
-0.90490001 -0.89587134 0.051179446
-1.4089999 -0.90166962 -0.37492308
-2.0536001 -0.5322063 -0.32012233
-0.9404 -0.93617642 -0.041168757
-1.3234999 -0.82636273 -0.26454371
-2.3625 -0.66443527 -0.50170738
-0.97070003 -1.1643598 -0.2631295
-0.76209998 -1.0832546 0.012005709
-0.99250001 -0.93872201 -0.10452551
-2.1573 -0.67129421 -0.48551461
-3.2082 -0.60341197 -0.332921
-3.1886001 -0.7243979 -0.45659393
-0.9734 -0.83951491 -0.0020657405
-0.72350001 -1.0908206 0.036825143
-3.2426 -0.60525048 -0.33235529
-1.4649999 -0.8618595 -0.40299526
-0.93790001 -0.95406616 -0.081968792
-0.9666 -1.1910176 -0.30095974
-1.0467 -0.85931391 -0.10756604
-3.0140998 -0.69102252 -0.49251497
-0.90670002 -0.98291612 -0.086777098
-0.77880001 -1.0222313 0.017309032
-1.2759 -0.76760215 -0.21030867
-0.67270005 -1.068971 0.10407101
-1.2423999 -0.86228371 -0.27444324
-0.70720005 -1.050657 0.071190529
-1.079 -0.97909778 -0.2496945
-3.3250999 -0.74066138 -0.44089618
-0.6742 -1.0091498 0.14847732
-0.79690003 -1.0438688 -0.044492073
-3.0922 -0.69165885 -0.49442416
-1.0661 -0.99840176 -0.2749382
-1.1873 -1.1213677 -0.45433119
-0.89450002 -1.002503 -0.12559724
-3.5867 -0.75480354 -0.34557819
-2.4089 -0.62907994 -0.53310293
-0.38620001 -1.2307571 0.33784059
-1.0051 -1.1924319 -0.38100421
-0.60640001 -1.0324137 0.17485243
-2.5688999 -0.62625152 -0.54003257
-0.82170004 -0.98206764 -0.050856091
-1.0584 -1.185573 -0.43014812
-1.2258999 -0.84290904 -0.30371746
-0.64900005 -1.0787998 0.051250152
-0.24070001 -1.5453489 0.31146541
-1.0564001 -0.87197113 -0.19786358
-1.4442 -0.60949308 -0.233926
-2.3322999 -0.61748338 -0.53974974
-1.2785001 -0.95951092 -0.43771419
-0.96680003 -0.79369438 -0.043926425
-3.5430999 -0.76095533 -0.4119755
-0.77830005 -1.1014979 -0.13422397
-1.0984 -0.85068721 -0.22734994
-1.0004001 -0.88703251 -0.17573112
-1.2736 -0.98334038 -0.46479636
-2.2400999 -0.46552616 -0.4006618
-0.787 -0.96933973 -0.045623489
-0.7277 -0.98093629 0.0085408613
-2.7816 -0.61599845 -0.55424541
-3.0174 -0.50526553 -0.40759143
-1.2193 -1.0485356 -0.48798946
-1.434 -0.7361359 -0.37980214
-0.81690001 -1.2408688 -0.29692927
-0.9799 -0.964885 -0.25245222
-0.79219997 -0.99762392 -0.097383685
-1.1289001 -0.85174787 -0.28710043
-0.98559999 -0.99366415 -0.28745401
-1.2603 -0.92797399 -0.44407818
-0.60329998 -1.0480407 0.077342384
-3.3905001 -0.71039724 -0.48402968
-1.6039 -0.52633733 -0.2900703
-1.2093999 -0.79659349 -0.30704084
-1.8576 -0.47874904 -0.35731614
-1.2462001 -0.84064627 -0.37711516
-2.1715 -0.59542167 -0.55304331
-2.0056 -0.61097801 -0.53578991
-0.88020003 -1.0651526 -0.2702713
-0.72549999 -1.1390452 -0.17389265
-0.14470001 -1.597604 0.35113415
-1.0598 -0.70969009 -0.12538514
-1.4779 -0.70594245 -0.41862229
-0.61600006 -1.0625364 0.0075509474
-1.1525 -0.84312117 -0.33532512
-1.1658001 -0.89749765 -0.39196441
-0.5388 -1.0674862 0.097353511
-2.7463 -0.4631927 -0.47101894
-0.36580002 -1.1927855 0.24330029
-1.1296 -0.82989824 -0.31899098
-2.0518999 -0.58665353 -0.55672026
-2.3806 -0.44056526 -0.47526157
-1.1251 -1.042596 -0.49180782
-2.4547999 -0.55766213 -0.5913685
-1.9933 -0.44572717 -0.42159215
-1.6315 -0.48596156 -0.32691059
-2.8912001 -0.46701103 -0.4795042
-0.3531 -1.1447729 0.26769555
-0.63660002 -0.95738959 0.019359611
-1.0177 -1.1039729 -0.48006991
-3.1547 -0.61345291 -0.56753898
-0.57350004 -0.9506014 0.09516146
-0.82990003 -1.1857145 -0.38616613
-0.52329999 -1.0594958 0.049340926
-0.84560001 -1.1980181 -0.41176334
-0.4738 -1.0723652 0.10237395
-3.2205 -0.48589081 -0.44365388
-1.0546 -0.78817898 -0.28702974
-0.93720001 -0.87331462 -0.26199815
-1.3647001 -0.52435744 -0.25980613
-2.4545 -0.53199422 -0.61208677
-1.0817001 -0.65149522 -0.18697414
-0.5248 -0.95873314 0.11701109
-0.75460005 -0.8765673 -0.10685895
-2.3545001 -0.41433161 -0.51662737
-0.44270003 -1.0176351 0.16049817
-2.1371 -0.42005917 -0.49378777
-3.4686999 -0.51735705 -0.39592418
-1.0715001 -0.85224283 -0.38376197
-0.61790001 -0.93257016 -0.0056012645
-0.56420004 -0.96361214 0.025582157
-0.69200003 -0.92606473 -0.1113844
-0.59820002 -1.115428 -0.164276
-2.0541999 -0.53072137 -0.60190439
-3.6204 -0.7009927 -0.50672781
-2.8892 -0.51940775 -0.61307675
-0.94 -1.0853052 -0.48388824
-0.68010002 -0.8192209 -0.0089246556
-0.58720005 -1.0397675 -0.10417194
-2.5109 -0.52407461 -0.65974575
-1.3966999 -0.65969765 -0.47250381
-0.70190001 -1.2049477 -0.3547706
-2.3639998 -0.51728636 -0.65140188
-3.1111 -0.46715248 -0.52985024
-0.51230001 -1.0293024 -0.015642174
-0.97400004 -0.93879271 -0.42222854
-2.6192 -0.39856315 -0.55304331
-0.37410003 -1.0920935 0.12266793
-0.93050003 -0.80642229 -0.27656457
-0.8082 -0.7374087 -0.091161169
-0.86370003 -0.70792234 -0.12050609
-2.0114 -0.4016037 -0.50163668
-2.4877 -0.5957045 -0.73731536
-2.7465 -0.52025622 -0.66328126
-0.56099999 -0.99925029 -0.066341706
-0.95670003 -0.65990978 -0.17035711
-0.63690001 -0.93200445 -0.10077781
-0.68529999 -0.9081043 -0.13570887
-3.9066 -0.68769908 -0.35526556
-0.4562 -1.000806 0.055704884
-2.5323999 -0.43087792 -0.60812694
-1.0839 -0.7354995 -0.36884198
-0.66460001 -1.0983868 -0.28936318
-0.55690002 -1.1719965 -0.22522861
-0.95060003 -0.98786592 -0.47257456
-0.54890001 -0.87013268 0.043542676
-0.2554 -1.1483792 0.21275336
-2.3320999 -0.61274576 -0.77062011
-2.5306001 -0.37268305 -0.57100385
-2.1301999 -0.46057642 -0.61788499
-1.1336 -0.53128707 -0.22784489
-3.9401999 -0.71421558 -0.38178203
-0.65900004 -0.87430453 -0.11491997
-2.0374999 -0.51657927 -0.654796
-3.8657999 -0.59796721 -0.33610293
-2.9135001 -0.46566758 -0.6314615
-2.4923999 -0.61571562 -0.79367185
-0.54369998 -0.98489606 -0.090736933
-0.87090003 -0.76343024 -0.24771461
-0.708 -0.75388432 -0.070442922
-2.7684 -0.4156751 -0.61470306
-0.44550002 -1.0078771 0.011864267
-0.39560002 -1.030858 0.060866766
-0.90530002 -1.0306458 -0.49612114
-0.81740004 -1.1235597 -0.48452461
-1.9224999 -0.49868947 -0.62403685
-3.4122 -0.58637071 -0.59660107
-2.8985 -0.59669441 -0.75683147
-3.0030999 -0.48539585 -0.64539146
-2.0107 -0.4663747 -0.62439042
-0.2326 -1.1207314 0.22625908
-2.9707 -0.46213204 -0.63428992
-1.4333999 -0.60284626 -0.52638543
-1.9895999 -0.58043098 -0.72303182
-0.50919998 -1.1751785 -0.23138046
-3.6048 -0.63622171 -0.56570053
-0.62820005 -0.94056046 -0.18923688
-3.0179999 -0.57562268 -0.73533547
-2.4036 -0.35606599 -0.59455049
-0.87580001 -0.80529094 -0.32606205
-2.1283 -0.61451352 -0.79147971
-3.2904999 -0.48249668 -0.57899415
-1.6243 -0.40711913 -0.45878595
-2.8106999 -0.43632263 -0.66137207
-0.29470003 -1.0665669 0.13263816
-2.079 -0.39354268 -0.59737891
-4.0105 -0.66917288 -0.34352759
-0.84450001 -1.0508691 -0.49711117
-0.82499999 -0.66691017 -0.15685141
-3.2277 -0.47217298 -0.60487425
-1.6933 -0.51686209 -0.60303575
-2.3578 -0.62561512 -0.84175503
-0.53600001 -0.82508993 0.0045810863
-1.2023001 -0.45788938 -0.27804947
-1.9956 -0.40584636 -0.60642987
-1.6461 -0.52032697 -0.59886384
-1.8889 -0.44572714 -0.62000632
-0.23870002 -1.085093 0.16771063
-2.0685999 -0.44056529 -0.66504908
-1.7751 -0.48907283 -0.6277138
-3.8457 -0.53878242 -0.37294319
-3.0414 -0.40520996 -0.61993563
-0.63340002 -1.1851487 -0.4246327
-2.8074999 -0.62236243 -0.84727043
-0.80669999 -1.0297266 -0.48346397
-2.8388999 -0.38017833 -0.64058316
-2.7131 -0.36101574 -0.63782543
-0.49360001 -1.0504448 -0.18188295
-3.7872999 -0.67009211 -0.54540658
-0.70190001 -0.8303932 -0.23901719
-3.0860999 -0.60213917 -0.79197472
-1.8241 -0.35161126 -0.53508282
-0.77560002 -1.0732844 -0.50227308
-1.7530999 -0.51254874 -0.66363484
-3.3641 -0.49296188 -0.61675364
-3.0388999 -0.61005872 -0.81573349
-0.56309998 -0.89233577 -0.15289158
