# .PCD v0.7 - Point Cloud Data file format
VERSION 0.7
FIELDS x y z
SIZE 4 4 4
TYPE F F F
COUNT 1 1 1
WIDTH 1038
HEIGHT 1
VIEWPOINT 0 0 0 1 0 0 0
POINTS 1038
DATA ascii
-2.0303001 -0.18538165 -0.53928077
-2.059 -0.21854258 -0.55853158
-2.0875001 -0.19564696 -0.54210627
-2.0240998 -0.24401629 -0.5770362
-2.0479999 -0.11706801 -0.46600503
-1.9085 -0.17988455 -0.54166245
-2.0739999 -0.10509686 -0.44348413
-1.946 -0.29495087 -0.60490429
-1.8956 -0.25559255 -0.59258258
-2.1245999 -0.30560818 -0.59398907
-1.8936 -0.10737502 -0.4547509
-1.8543 -0.14125817 -0.50215483
-1.8427 -0.21022522 -0.56711775
-2.1592 -0.091885172 -0.41475347
-1.9145 -0.077539548 -0.39648485
-2.2506001 -0.19419685 -0.52844697
-1.9716001 -0.40140286 -0.62428391
-2.2825999 -0.21750303 -0.53966445
-2.24 -0.094607666 -0.41371036
-1.7981 -0.10023681 -0.44455647
-1.8446 -0.06852828 -0.37215033
-2.2783999 -0.32506499 -0.58442235
-2.0792 -0.051172707 -0.28744978
-2.0387001 -0.47764668 -0.61284977
-2.3211 -0.12879744 -0.45822364
-1.8329 -0.057294741 -0.32183525
-1.944 -0.49017206 -0.6218617
-1.7172 -0.095879622 -0.43759409
-2.1345 -0.50932509 -0.59386218
-2.3893001 -0.23371118 -0.53815603
-1.7197 -0.070922524 -0.38506228
-2.24 -0.053041197 -0.26879078
-1.6881 -0.2915062 -0.61983287
-1.9586999 -0.53974551 -0.60907578
-2.0423 -0.054901998 -0.1948912
-1.7151999 -0.3555603 -0.63894618
-1.7491 -0.055863194 -0.3167088
-1.8846 -0.054497857 -0.20466958
-2.0707002 -0.060911905 -0.17290072
-2.0683 -0.57130635 -0.57808542
-1.7909 -0.47535124 -0.64372015
-2.1240001 -0.060877178 -0.17309768
-1.9768 -0.57652158 -0.58997166
-1.9116 -0.57515019 -0.60120416
-2.4412 -0.22440046 -0.5264616
-2.1392999 -0.59865659 -0.55254674
-2.0289001 -0.61749023 -0.56033552
-2.309 -0.057149272 -0.2339752
-1.6344 -0.33407417 -0.63525909
-2.4440999 -0.10746202 -0.41394609
-1.6559 -0.39126867 -0.64778107
-2.4359 -0.37144583 -0.56670719
-2.0132999 -0.082584947 -0.10411927
-2.0606999 -0.64120269 -0.53527242
-1.8365999 -0.071264945 -0.1401002
-2.5086999 -0.20615032 -0.50730145
-1.5954 -0.067485437 -0.37115413
-2.4523001 -0.070850119 -0.32270229
-2.5111001 -0.29041827 -0.5448041
-1.5547 -0.090699859 -0.43068975
-2.2353001 -0.63764656 -0.49900389
-1.6681 -0.053845387 -0.21988747
-1.9056 -0.67015624 -0.54210389
-1.6404999 -0.48195606 -0.65118045
-1.8245 -0.64802665 -0.57719427
-2.4329 -0.057035107 -0.2461402
-2.2259002 -0.10878053 -0.064973384
-1.6594 -0.53995788 -0.63724053
-2.0209 -0.13639432 -0.018360287
-2.4675 -0.061192513 -0.27439132
-2.3748 0.00052507222 -0.1867426
-1.5141 -0.2692959 -0.61622125
-2.5218 -0.3843796 -0.55497485
-1.518 -0.091534331 -0.43286774
-2.3972001 -0.56960046 -0.51635134
-2.1476998 -0.13659747 -0.021239311
-1.8354 -0.11864855 -0.043561652
-2.4102001 0.0034599677 -0.20165958
-2.5021 -0.45640659 -0.54614812
-2.3597 -0.085615978 -0.11399565
-2.4649 -0.52205426 -0.52685457
-2.5376 -0.078052796 -0.33828986
-2.0981998 -0.72780132 -0.42077059
-2.2133999 -0.15203372 -0.0091359168
-2.4175 -0.59184134 -0.49041945
-2.1894999 -0.71392649 -0.41365308
-1.9678 -0.18365192 0.026210621
-2.1599 -0.17700902 0.015603021
-1.4513 -0.12870473 -0.49963665
-2.2665999 -0.7053681 -0.39711571
-1.7951 -0.72449523 -0.51553613
-2.4498999 -0.053365476 -0.14313814
-2.3831999 -0.12110679 -0.058414161
-1.7361 -0.13540927 -0.016460374
-2.0444999 -0.23896286 0.061745837
-2.4319 -0.099794321 -0.095780969
-2.119 -0.24912897 0.064116552
-1.4954 -0.46227303 -0.65857482
-2.3801 -0.68045801 -0.39038789
-1.5865999 -0.080975242 -0.1092172
-2.4712999 -0.62147141 -0.44619274
-1.9457 -0.26361489 0.078316823
-1.9488 -0.78173465 -0.35158491
-1.6121 -0.65699011 -0.59085834
-1.8886 -0.78250974 -0.38462138
-2.2426 -0.73825318 -0.30736259
-2.4978001 0.010487862 -0.1516799
-2.2785001 -0.23879659 0.049285442
-1.8388 -0.24250671 0.071478352
-1.4076 -0.080971412 -0.41445374
-2.0987 -0.76746035 -0.26265514
-1.8062 -0.78390563 -0.42507839
-1.6288 -0.12712145 -0.028910369
-2.4258001 -0.67627299 -0.37208307
-2.5016 0.075249635 -0.16767716
-1.7629 -0.77794135 -0.44220287
-1.4414999 -0.45174775 -0.6606791
-2.536 -0.0683676 -0.13349676
-2.6828001 -0.1569553 -0.44998807
-1.5137 -0.069417842 -0.14596862
-2.5125999 -0.10610802 -0.092223287
-2.2467999 -0.31144038 0.080038175
-2.6129999 -0.51359296 -0.49997699
-1.3654 -0.24975532 -0.60668319
-1.9217 -0.3394857 0.10606353
-1.6964999 -0.19950421 0.045856386
-1.451 -0.053804711 -0.21896641
-2.3597 -0.7135942 -0.27387178
-1.4172 -0.05087132 -0.28627968
-2.7033999 -0.26629829 -0.51343924
-2.0033 -0.37997127 0.11050068
-1.8941 -0.80241764 -0.28669056
-1.3823 -0.36125651 -0.65213567
-2.5352001 0.065879248 -0.15023941
-2.5546999 0.082151808 -0.18839334
-2.1904001 -0.38703454 0.097577855
-1.7812001 -0.80405176 -0.37359458
-2.3290999 -0.30352291 0.070264533
-1.7641 -0.27713931 0.091671214
-2.6710999 -0.45026818 -0.51876622
-1.3579 -0.077274568 -0.40720165
-2.0181 -0.76940411 -0.16064288
-1.4475 -0.060419742 -0.17454016
-2.7098999 -0.35177934 -0.52678567
-1.5591 -0.70317209 -0.55929828
-2.2497001 -0.72417182 -0.14880858
-1.8717 -0.80762732 -0.2588726
-1.9245 -0.79801679 -0.21605323
-2.0226002 -0.45709762 0.10736011
-2.0922999 -0.47492316 0.10076456
-2.4015999 -0.27465904 0.056873277
-2.1497998 -0.48816121 0.090611532
-1.3616 -0.397457 -0.65933114
-1.7897 -0.81883806 -0.31162068
-2.6113 0.064574175 -0.20388095
-2.6454 -0.54529303 -0.46992511
-2.0174 -0.73778731 -0.081957281
-1.892 -0.797822 -0.18951625
-1.7487 -0.31802854 0.10933928
-1.5625 -0.15479472 0.0065225363
-1.883 -0.43627653 0.11885022
-2.1360002 -0.67646778 -0.023724586
-2.0407 -0.55470496 0.081010476
-2.4769001 -0.22749203 0.027213112
-2.6078999 -0.030192748 -0.13346732
-2.6870999 -0.06401775 -0.26239973
-2.0908999 -0.66049314 0.0031577945
-2.1630001 -0.60944819 0.033279285
-2.6004 -0.61394083 -0.40597409
-2.7532001 -0.19176161 -0.47084904
-2.2901001 -0.46543166 0.079184905
-2.0474 -0.6680643 0.0040567666
-2.0495 -0.62555146 0.039375588
-2.2409 -0.65519661 -0.025152579
-2.352 -0.69400555 -0.12754726
-2.7544 -0.31136155 -0.51874501
-1.4782 -0.6684258 -0.59510869
-1.6962 -0.30909607 0.10878195
-1.3816 -0.52168405 -0.65564698
-1.4718 -0.10795699 -0.058126345
-1.8171 -0.44008756 0.1237631
-2.747 -0.37570897 -0.52237397
-2.5820999 -0.64670897 -0.34970945
-2.7692001 -0.15712205 -0.4409802
-1.6877 -0.8204245 -0.34754187
-2.3315001 -0.55749768 0.035230026
-2.4779 -0.68594694 -0.20492342
-1.7102 -0.3543658 0.11846809
-1.4157 -0.077738479 -0.11951153
-2.5558 -0.66883564 -0.29390389
-1.6124001 -0.26346883 0.087278321
-2.3597 -0.59632558 0.0049272627
-1.5346 -0.75720656 -0.50911891
-2.4173 -0.41931033 0.069852009
-1.283 -0.28411561 -0.62777013
-1.8799 -0.73934537 -0.038568631
-1.5628 -0.21474302 0.061447009
-2.5941 0.1418362 -0.14161864
-1.7772 -0.81601161 -0.19059119
-1.87 -0.64025718 0.055974141
-2.6166 -0.14552762 -0.045457959
-1.2609 -0.12952754 -0.50130492
-1.8519 -0.70973283 -0.00034581125
-2.6807001 0.076304071 -0.20820984
-2.5655999 -0.66850537 -0.25201008
-2.4895 -0.66932994 -0.14137243
-2.4500999 -0.43470261 0.065005526
-1.3365 -0.51926273 -0.65613389
-2.4359 -0.55733836 0.014746472
-1.6782 -0.39023963 0.12727241
-1.7079 -0.46126565 0.12754296
-1.3701 -0.61936456 -0.62514561
-2.8092999 -0.24832964 -0.39420763
-1.5193 -0.79100645 -0.45851952
-1.7873 -0.73300457 -0.013486549
-2.8218999 -0.16274115 -0.44136173
-2.4872999 -0.59272081 -0.025306061
-2.6168001 -0.21676028 0.01011692
-2.7360001 -0.56004196 -0.43119788
-1.7449 -0.58986521 0.097860977
-1.7111 -0.81058848 -0.14130062
-2.6219001 -0.65577316 -0.25453755
-2.6628001 0.11373638 -0.13256051
-2.6975999 0.026548572 -0.13046874
-2.6968 -0.61572486 -0.36303151
-1.607 -0.83502072 -0.29355633
-2.8410001 -0.21402992 -0.47528327
-2.5497999 -0.39793101 0.055140957
-1.2200999 -0.2639896 -0.61579335
-1.7167 -0.75643909 -0.03203775
-1.4539 -0.20276478 0.051678672
-1.6385 -0.83058256 -0.20412704
-1.2432001 -0.055805869 -0.32106501
-1.2034 -0.17338604 -0.54914767
-2.5785 -0.37638775 0.052745536
-1.323 -0.61444104 -0.62772989
-2.556 -0.56632721 -0.01547353
-1.2183 -0.065932333 -0.36671704
-1.612 -0.47145489 0.13062041
-1.4942 -0.28400844 0.10010652
-2.8462999 -0.098589852 -0.34851134
-1.2362 -0.051252622 -0.2789343
-2.8227 -0.48483318 -0.47073871
-1.6592 -0.63866127 0.076868698
-2.7328 -0.13872889 -0.060404435
-1.5714999 -0.43391681 0.13368537
-1.2807 -0.57779765 -0.64320195
-2.6538999 0.23071724 -0.13142982
-2.8829 -0.25272653 -0.51957572
-1.5642 -0.84080648 -0.24289133
-2.6661999 -0.64013457 -0.18658966
-1.4737999 -0.82503033 -0.39282972
-2.8736 -0.36475787 -0.50328225
-1.6362 -0.74061537 -0.0066035688
-2.767 0.0011360273 -0.12570927
-2.7342999 0.17597923 -0.18322182
-2.7291999 -0.63104022 -0.27271894
-2.7272999 -0.18689018 -0.015891314
-1.579 -0.51957059 0.12822889
-2.9057 -0.20193478 -0.56057876
-1.1665 -0.069056615 -0.38067156
-2.9037001 -0.2935873 -0.42259783
-1.1559 -0.31047422 -0.63607335
-2.8743999 -0.079921462 -0.27931842
-2.9179001 -0.21015519 -0.47998178
-2.9124 -0.22980699 -0.41460103
-2.7314 0.22658765 -0.16790099
-2.6919 -0.34674743 0.040709689
-2.7709999 -0.17470406 -0.030294016
-1.5415 -0.8234942 -0.13606209
-1.5297 -0.52220029 0.12989755
-1.1335 -0.24830118 -0.60571599
-1.2121 -0.059232745 -0.17839257
-2.6989999 -0.57902682 -0.06899184
-1.402 -0.8264395 -0.40384173
-2.9389 -0.22903579 -0.57561326
-1.3308001 -0.20079538 0.050299659
-2.806 -0.34378654 -0.07858859
-1.1402 -0.063410826 -0.35510272
-2.8343999 -0.032746099 -0.12416945
-1.5321 -0.6184296 0.098612204
-2.8151 -0.6041379 -0.31184176
-2.8155999 -0.14090762 -0.064748764
-2.8023 0.17150596 -0.19182935
-2.7772999 -0.33789951 -0.026169941
-2.7743001 0.21709779 -0.17627612
-1.5312999 -0.71994764 0.026488081
-2.8139999 0.069608219 -0.12013451
-2.7923999 -0.19729395 -0.014476404
-2.8548999 -0.0892272 -0.13037151
-2.7760999 -0.6190623 -0.20186253
-1.318 -0.77637905 -0.49655735
-1.2479 -0.67961735 -0.59383273
-1.1050999 -0.11451514 -0.47875547
-1.1491001 -0.45891947 -0.66204518
-2.8789999 0.042945705 -0.23094791
-2.9047999 -0.49431822 -0.44458848
-2.7279 -0.53326911 -0.02731289
-1.2460001 -0.12054204 -0.038006037
-1.3451999 -0.81192201 -0.44068044
-2.7686 -0.3346667 0.018266484
-2.9677 -0.24484214 -0.55910718
-1.2575999 -0.73356521 -0.54587203
-2.7421999 0.27465847 -0.11342598
-2.8526001 0.037718527 -0.12068038
-1.4622999 -0.56990021 0.11823742
-1.0805 -0.19517028 -0.57187575
-2.7588999 -0.49250212 -0.0074317306
-2.973 -0.32881117 -0.48831278
-1.3779 -0.84973794 -0.31777999
-1.4766999 -0.73539299 0.015032008
-2.984 -0.26530087 -0.50585073
-1.2214999 -0.69892263 -0.57763898
-1.1226001 -0.052320886 -0.25444779
-2.8011 -0.34757411 0.011421159
-2.8304 0.13466856 -0.11363821
-1.3937 -0.85197842 -0.2664898
-2.9886999 -0.22276708 -0.61116481
-2.8132999 0.1847018 -0.11060393
-2.9835 -0.23893258 -0.3864581
-2.8613999 -0.29776508 -0.056257784
-1.0633 -0.1469087 -0.52021033
-1.1444 -0.062301576 -0.16847479
-1.4561 -0.69419444 0.05550082
-1.2922 -0.26203179 0.090070292
-1.3242 -0.83680987 -0.37094271
-1.3518 -0.38662985 0.13329066
-3.0057001 -0.24008897 -0.57857764
-2.9976001 -0.1370897 -0.39449537
-1.3856 -0.85097474 -0.21401837
-2.9414999 -0.5280326 -0.40311283
-3.0072 -0.27498117 -0.46765137
-1.2567 -0.21945176 0.06742011
-2.8083 -0.48392931 -0.011708066
-1.2976 -0.30766451 0.1139084
-1.1012 -0.053701002 -0.22300984
-3.0228 -0.22366032 -0.61934417
-1.4147 -0.748092 0.0070048422
-2.9986999 -0.41344795 -0.47074282
-3.0237999 -0.19207603 -0.44084787
-3.0093 -0.10842603 -0.34801179
-1.2553999 -0.27286944 0.095673487
-1.1402 -0.094109297 -0.079648688
-2.8220999 0.30531397 -0.15655798
-3.0186999 -0.13837808 -0.74423236
-1.3921 -0.71139455 0.047086239
-1.3868001 -0.78376997 -0.0330998
-2.9456999 -0.57108498 -0.31962037
-1.0118001 -0.24527708 -0.60386264
-2.9138999 0.20440355 -0.19181655
-1.3578 -0.80287409 -0.069875926
-2.8471999 0.256181 -0.10135112
-2.9396999 -0.15239465 -0.063524872
-2.8982 0.23634651 -0.18293479
-1.1651 -0.16542301 0.017849013
-3.0000999 0.0043757334 -0.23967814
-2.9191 -0.21763261 -0.014305592
-3.0539 -0.15042602 -0.4029395
-2.9433999 0.054784738 -0.11726499
-1.1291001 -0.6932348 -0.58283019
-1.0736001 -0.57082903 -0.64471483
-3.0662999 -0.20634536 -0.49352598
-3.0346999 -0.090808608 -0.29646951
-3.0493 -0.37551644 -0.47106093
-3.0678999 -0.22904557 -0.60435152
-2.9168999 0.15122548 -0.10675861
-1.0824001 -0.61488706 -0.62750393
-2.9934001 -0.5478369 -0.35126412
-1.3371 -0.74963892 0.005412057
-1.3135999 -0.57583785 0.1185105
-2.9405 -0.29702523 -0.026476875
-1.2469001 -0.38631704 0.13324429
-3.0754001 -0.22798368 -0.42494148
-1.0192001 -0.051448863 -0.27379024
-0.98159999 -0.26864746 -0.61874706
-2.9907 -0.039275095 -0.12745309
-3.0869 -0.186611 -0.5484333
-2.8626001 0.33862928 -0.15200365
-2.9918001 0.11150045 -0.21489969
-2.8894999 0.26049727 -0.097036056
-2.9828 -0.29454613 -0.069906175
-2.9958 -0.13512345 -0.085458994
-3.0629001 -0.12575385 -0.81582791
-1.1437 -0.78438878 -0.48395681
-1.1682 -0.26986316 0.094172701
-3.0895 -0.29006743 -0.39648998
-2.9524 0.23788702 -0.18591252
-3.0957999 -0.30647719 -0.46985406
-2.8464 0.38574472 -0.13587715
-2.8539 0.3470138 -0.094169065
-1.271 -0.8325361 -0.13085306
-1.2099 -0.85030377 -0.30478072
-3.0994 -0.13045436 -0.37626624
-3.1111 -0.26475227 -0.47671282
-1.0186 -0.56944466 -0.64507997
-3.1108999 -0.14024627 -0.68180841
-3.0172 0.14282331 -0.20825966
-0.96820003 -0.40984794 -0.65989131
-1.1182001 -0.21376392 0.062228933
-0.9447 -0.30162236 -0.63329405
-0.93379998 -0.14170016 -0.51462096
-3.1176 -0.1876184 -0.71087611
-2.9868 -0.54690766 -0.12618327
-0.94520003 -0.068361059 -0.37770569
-2.9333999 -0.3550036 0.072559878
-1.1845 -0.4081786 0.13802065
-3.1282001 -0.16011781 -0.40556228
-1.2309999 -0.58573818 0.1153432
-3.0548999 -0.051539287 -0.13276342
-0.92510003 -0.09621647 -0.44374606
-3.0280001 0.068108417 -0.11623572
-3.1403 -0.22288889 -0.44577324
-0.93279999 -0.35769954 -0.6510008
-3.148 -0.19327626 -0.53194016
-0.94980001 -0.44491807 -0.66140413
-2.9879 0.19961429 -0.098429441
-3.1012001 -0.092174143 -0.86748159
-3.1006 -0.0079800263 -0.23698275
-1.2216001 -0.77203166 -0.01904802
-2.8996999 0.40940264 -0.13586885
-0.95880002 -0.5325743 -0.65320086
-3.0122001 -0.33893231 0.0032983869
-2.8527 0.46492472 -0.11155823
-3.0316999 -0.54512578 -0.1426236
-3.1663001 -0.21595624 -0.62214899
-0.92519999 -0.05064059 -0.29334697
-3.1269 -0.076881118 -0.24415629
-0.88929999 -0.11868131 -0.48680115
-1.0648 -0.23207918 0.074535504
-1.0304999 -0.16736338 0.019639283
-3.1691999 -0.24257019 -0.3842563
-3.1458001 -0.096452743 -0.80923975
-1.0418 -0.77552515 -0.52098012
-3.0992999 0.10125872 -0.21497937
-0.98009998 -0.66307998 -0.602391
-3.0216999 -0.30013204 0.043547466
-0.88599998 -0.33576691 -0.6440872
-3.1177001 -0.080719575 -0.14521976
-3.0994 0.13665399 -0.20782433
-1.1201999 -0.44829974 0.1386634
-1.0475 -0.80531383 -0.45109111
-3.0852001 -0.20940924 -0.032148674
-3.1926 -0.27584839 -0.41378361
-3.0032001 0.29193071 -0.086416356
-3.1329999 -0.5328266 -0.30221239
-0.90090001 -0.50899816 -0.6584872
-1.1144 -0.51088023 0.13595532
-3.2081001 -0.26342797 -0.45139825
-0.84859997 -0.11761515 -0.48478532
-3.1241 -0.54365849 -0.25517878
-3.1087999 -0.54508185 -0.20161214
-3.1503 -0.094956428 -0.92138362
-0.85720003 -0.071659237 -0.3924017
-3.1903999 -0.15371855 -0.79313928
-3.0453 0.24682701 -0.090916902
-1.1213 -0.64193797 0.091420785
-0.8373 -0.30065492 -0.63302195
-0.94940001 -0.13959636 -0.0082629174
-3.2191 -0.16782358 -0.74769819
-3.1745 -0.51287454 -0.33301574
-3.227 -0.32822093 -0.45134872
-3.0541999 0.33859834 -0.16622509
-1.0955 -0.82390189 -0.11013906
-3.1164999 0.13643026 -0.1086566
-3.1268001 -0.51956099 -0.13557729
-3.1170001 -0.49046269 -0.088103168
-0.81590003 -0.21569619 -0.58504003
-0.90460002 -0.63791764 -0.61552113
-1.0143 -0.33432209 0.12169768
-3.177 -0.1210172 -0.12226869
-0.86129999 -0.054803755 -0.19660011
-3.1723001 -0.054354586 -0.96448803
-0.8955 -0.091306165 -0.084028468
-0.9932 -0.82735437 -0.40095675
-1.0569999 -0.84149742 -0.17101941
-3.0423 0.3482441 -0.07811147
-0.86729997 -0.072214544 -0.13701828
-0.95069999 -0.78749251 -0.55791938
-3.1276 0.17995283 -0.10209937
-0.99919999 -0.84262335 -0.35237002
-1.0712 -0.7888574 -0.042831078
-3.2607 -0.14899105 -0.66446346
-3.1967001 0.069322862 -0.21411178
-0.94919997 -0.22100985 0.068770066
-0.90439999 -0.13372368 -0.017381683
-3.1443999 -0.34003514 -0.012330547
-3.217 0.0069790781 -0.2227692
-1.0547 -0.8156333 -0.094262019
-1.0085 -0.85096222 -0.29068089
-1.0211 -0.45959005 0.1381958
-0.95910001 -0.82385826 -0.50371069
-3.1538 -0.44065657 -0.052107587
-3.2270999 -0.070198692 -0.88614911
-3.2813001 -0.23811093 -0.51781094
-3.2558999 -0.09972325 -0.2925581
-3.2002001 0.11687172 -0.2056261
-3.1282001 -0.3522093 0.046346843
-3.2119 -0.12499639 -0.11870554
-3.1846001 0.1721946 -0.1968866
-2.9916999 -0.33443084 0.25591791
-0.78899997 -0.3602891 -0.65186357
-2.9927001 0.51790541 -0.1160261
-3.2864001 -0.14441411 -0.36908117
-3.0511999 -0.30238041 0.2042992
-3.2988999 -0.22044441 -0.57135665
-3.2437 -0.50071383 -0.32193571
-3.3011 -0.22196499 -0.4671374
-3.1503999 -0.30129996 0.059385255
-0.93400002 -0.29479375 0.10714056
-3.1522 0.23963195 -0.093302563
-3.1796999 0.25473887 -0.18243337
-3.2937 -0.36999574 -0.4286581
-3.1912 -0.38314784 -0.029274404
-3.2743001 -0.084449321 -0.84621716
-3.2802999 -0.13020052 -0.84128678
-0.99290001 -0.57382178 0.11917062
-0.7899 -0.054480493 -0.20476806
-3.1285999 0.31744319 -0.080800846
-0.94349998 -0.3846198 0.13283278
-3.3166001 -0.17882152 -0.39565974
-3.2901001 -0.094272494 -0.25321388
-3.2255001 -0.49961695 -0.14099637
-3.3225999 -0.2652384 -0.43191668
-3.2691 -0.060632773 -0.91390985
-0.92220002 -0.85751635 -0.39114526
-0.90149999 -0.84234476 -0.51519531
-3.2495999 0.067191146 -0.13061343
-3.2860999 -0.49052939 -0.31749982
-2.973 0.59875751 -0.064909711
-3.2456999 -0.30112958 -0.048118368
-0.96990001 -0.79304093 -0.050778285
-3.1833999 0.33052292 -0.167649
-3.3278999 -0.14967796 -0.77171206
-0.74989998 -0.51239264 -0.65766418
-0.70640004 -0.25759953 -0.61172187
-0.84579998 -0.21339899 0.0618871
-3.2495 0.15991962 -0.11345056
-3.3697 -0.21301447 -0.5046531
-3.2762001 -0.3298234 -0.061605901
-0.93629998 -0.64357167 0.090320364
-3.3094001 -0.49716774 -0.27409309
-0.9386 -0.78310931 -0.031663299
-3.3408 -0.12744781 -0.8332873
-3.0945001 -0.30340153 0.27631599
-3.2679999 -0.33248329 -0.02694115
-3.21 0.29134554 -0.087128796
-0.8969 -0.4818579 0.13721411
-0.86970001 -0.37279117 0.13024746
-3.2834001 0.1892387 -0.1858594
-0.67750001 -0.23369032 -0.59643781
-3.3801999 -0.16847125 -0.69795495
-0.72899997 -0.063384384 -0.16521329
-3.3898001 -0.20275992 -0.537471
-3.3053999 -0.30304354 -0.064905763
-0.81290001 -0.80129647 -0.59711188
-0.89160001 -0.88890797 -0.2678228
-0.74790001 -0.65194404 -0.62926561
-0.68659997 -0.41106451 -0.65990275
-3.1691999 0.46262082 -0.1411072
-3.2802 0.24176937 -0.17740917
-0.82590002 -0.83853954 -0.56153864
-3.3106 -0.029653579 -1.0037959
-3.3978 -0.23169509 -0.45341861
-0.92860001 -0.89556712 -0.12409562
-3.1626999 0.43491861 -0.064046934
-3.3392 0.0074404255 -0.15455273
-3.3701 -0.11466699 -0.86200416
-3.3355999 -0.073845245 -0.98985797
-3.3629 -0.47687715 -0.28666061
-3.2411001 0.31659111 -0.084606633
-3.3123 -0.016387515 -1.0421754
-3.3203001 0.19071066 -0.18153815
-3.3369 -0.47509766 -0.15393519
-3.1470001 -0.3557457 0.27602208
-3.3427999 0.064594246 -0.14295182
-3.2328 0.3536489 -0.077666171
-3.3285 -0.39322025 -0.061411709
-3.1431999 0.55310804 -0.11987165
-0.83539999 -0.88938195 -0.34345412
-3.2669001 -0.30519751 0.10855548
-0.82999998 -0.44215351 0.13893484
-3.4149001 -0.36485305 -0.39678079
-3.253 -0.34580126 0.13784973
-3.2753 0.29588088 -0.090390801
-3.3833001 -0.12135741 -0.1525884
-3.4300001 -0.18083464 -0.37560463
-3.0467 0.66000128 -0.051166028
-3.1355 0.54054701 -0.051514342
-3.2181001 0.41264459 -0.067872897
-3.1099 0.61518091 -0.10161545
-0.61800003 -0.085525803 -0.42317712
-0.63740003 -0.44057918 -0.66124839
-0.60839999 -0.26408806 -0.61581069
-3.4109001 -0.098979264 -0.19139197
-3.3645 0.17818126 -0.17785795
-3.3641 -0.30735573 -0.039874285
-0.69690001 -0.12880084 -0.025144771
-3.2649 0.4212822 -0.14738089
-3.1923001 -0.30412418 0.28674901
-0.59829998 -0.21571356 -0.58494157
-3.3045001 -0.30687144 0.10998653
-0.60710001 -0.068268284 -0.37708008
-0.76590002 -0.86928165 -0.51618797
-0.83660001 -0.79297167 -0.010859817
-3.4052 0.023306027 -0.16160482
-3.4033999 -0.075742036 -0.96643144
-3.3566 0.21456334 -0.11468045
-0.65630001 -0.63395947 -0.64487982
-0.59679997 -0.36645293 -0.6537627
-0.81169999 -0.73565871 0.020569965
-3.1366999 -0.35279351 0.38539636
-3.3420999 0.27289918 -0.10114491
-3.3171999 0.37832773 -0.15140094
-3.4266 -0.14762342 -0.11995364
-0.7493 -0.37743691 0.13125609
-3.4477 -0.085668437 -0.19950381
-0.67460001 -0.1516262 0.0052534491
-3.3341 -0.0037024766 -1.1763104
-3.4724 -0.11206263 -0.79615152
-3.4028001 0.14464077 -0.13564081
-0.77380002 -0.90680635 -0.2981922
-3.3740001 -0.32618329 0.037532315
-3.4853001 -0.33189654 -0.38904035
-3.3227999 0.01877486 -1.2099179
-0.55630004 -0.12163647 -0.4925009
-3.2084999 -0.35238919 0.33530551
-3.3043001 0.40248892 -0.073623776
-3.4351001 -0.042324737 -0.9780044
-0.75470001 -0.51500475 0.13573574
-3.3947001 0.25177568 -0.16274887
-0.72409999 -0.88370967 -0.46085268
-0.56580001 -0.40248525 -0.65960848
-3.2269001 -0.30510202 0.33663714
-3.3827 -0.015839845 -1.1443323
-0.63880002 -0.71268153 -0.6671887
-0.75779998 -0.91706467 -0.25095591
-3.4718001 0.014550976 -0.17645067
-0.79369998 -0.8766582 -0.033231705
-3.3002999 0.46648404 -0.062238172
-3.4577999 -0.41187531 -0.11801098
-0.6631 -0.26024774 0.089166358
-0.73800004 -0.62814397 0.10014869
-3.2483001 0.55979747 -0.046089113
-3.1887 0.64572978 -0.03702949
-3.3859 -0.0010563582 -1.1849828
-3.4756999 -0.43463585 -0.16284443
-0.51429999 -0.20492631 -0.57816547
-0.6074 -0.13442446 -0.016286731
-3.4735 -0.24858537 -0.067386895
-3.3882 -0.3115887 0.13789134
-0.5661 -0.07406164 -0.13114987
-3.4579999 -0.017390653 -1.0491556
-3.4897001 -0.064805456 -0.96856475
-3.4928 0.053896673 -0.17154381
-3.5353999 -0.36803886 -0.35337457
-0.6146 -0.1847918 0.035554647
-3.4748001 0.13307616 -0.15067743
-0.68239999 -0.89810854 -0.40337992
-3.4939001 -0.3882913 -0.10836919
-3.5307 -0.087135457 -0.8753258
-3.2516 0.64647371 -0.10229179
-3.5362999 -0.12229925 -0.21865565
-3.4972 -0.039297551 -0.99574828
-3.2044001 -0.35292923 0.45066434
-0.74080002 -0.86136705 -0.0053528696
-3.3749001 0.43274489 -0.074178308
-0.51050001 -0.47977382 -0.66298074
-3.4514 0.014869027 -1.1370896
-3.5102 0.11237093 -0.16224864
-0.61660004 -0.84110016 -0.60402876
-3.2217 -0.30654335 0.46920073
-3.3596001 -0.33790407 0.27388781
-3.2618001 -0.30649155 0.42514038
-0.66890001 -0.66192502 0.078656152
-3.2959001 0.59705192 -0.040840194
-3.4473 -0.32210475 0.12324269
-3.1849 -0.31289697 0.51905489
-3.2960999 -0.30684462 0.3856796
-3.253 0.69596934 -0.0910258
-0.65929997 -0.59727812 0.11168371
-3.5186 0.15179226 -0.15489143
-3.2493 -0.3504858 0.44256562
-3.1752 0.76626849 -0.027858838
-3.5881 -0.14888871 -0.30396897
-0.70850003 -0.93285871 -0.10437159
-3.1918001 0.77561867 -0.065913334
-0.62419999 -0.42966405 0.1395124
-0.4497 -0.24008042 -0.60050935
-3.6031001 -0.20482537 -0.3524183
-0.63460004 -0.53659534 0.1309133
-3.6003001 -0.3646929 -0.32800817
-3.4605 0.36710861 -0.098139964
-3.5576 -0.35643634 -0.10762635
-3.5488999 -0.040997677 -1.016052
-3.4937 -0.001701206 -1.1565629
-3.2737 -0.30718112 0.46533126
-0.44069999 -0.38989732 -0.65901357
-3.4047999 0.064526848 -1.3340592
-3.6177001 -0.14301194 -0.28374118
-3.4584999 -0.31605333 0.19142942
-3.3459001 -0.30840912 0.38245898
-0.63600004 -0.93438697 -0.22182131
-0.58899999 -0.44920343 0.13860564
-3.487 0.39300427 -0.12809837
-3.6091001 -0.40320754 -0.23051503
-0.44330001 -0.053764511 -0.22149789
-3.3580999 0.60700399 -0.041420862
-3.4979 0.03932213 -1.2095442
-3.4514999 0.49139699 -0.11887248
-3.6434 -0.31201547 -0.34745628
-3.5007999 0.36859652 -0.10427479
-0.57550001 -0.90900916 -0.39281222
-3.2327001 0.79073864 -0.019787014
-0.40259999 -0.082037576 -0.41646951
-0.43799999 -0.057420377 -0.18406403
-0.54139996 -0.86865228 -0.57273781
-3.2688999 0.75830442 -0.020124272
-0.59799999 -0.93451095 -0.2383946
-0.54100001 -0.38536128 0.13300665
-3.3304999 0.68935692 -0.027610615
-3.6306 -0.16519608 -0.14122832
-3.3512001 -0.30866119 0.44435555
-3.5555999 0.0030327663 -1.1477063
-3.4605 0.50215518 -0.070468977
-3.6449001 -0.39083391 -0.22985637
-0.44139999 -0.64663386 -0.68356842
-0.51170003 -0.3239764 0.11946021
-0.61699998 -0.85868734 0.01918526
-3.4586999 0.064825095 -1.3553305
-0.50520003 -0.85025907 -0.60737002
-0.55239999 -0.64914489 0.0867991
-3.6401 -0.26310083 -0.099089116
-3.5357001 0.40032396 -0.1039606
-3.6426001 -0.31880078 -0.11144908
-0.58350003 -0.78825283 0.055670366
-3.3783 -0.34028897 0.45269006
-3.3943 -0.3103708 0.43907851
-0.53439999 -0.6076709 0.1084296
-3.3364999 -0.30866823 0.51868355
-3.6982 -0.16014093 -0.28046584
-3.4779 0.095212825 -1.3664223
-0.51010001 -0.91251451 -0.39769512
-0.41780001 -0.1261483 -0.029246479
-0.37970001 -0.5583294 -0.65398508
-0.47170001 -0.85672879 -0.60119969
-3.3796 -0.3097097 0.48600632
-0.38169998 -0.075451314 -0.12672395
-3.2590001 -0.31327999 0.63870609
-3.5866001 0.033471562 -1.2080374
-3.4096 0.71545142 -0.085762821
-3.6974001 -0.16975167 -0.15858305
-3.7158 -0.34917876 -0.28008613
-3.2295001 0.91925383 -0.012662351
-3.266 0.89537776 -0.04022716
-3.4833 -0.32532692 0.3632291
-3.4161 0.69422841 -0.029899478
-3.7320001 -0.31451857 -0.31022534
-3.7263 -0.15314302 -0.23780251
-0.46509999 -0.4353005 0.13922934
-0.5521 -0.88991243 0.0073837638
-0.5291 -0.79447967 0.058735654
-0.49059999 -0.68674958 0.062804624
-3.4611001 0.64643574 -0.042185217
-0.4862 -0.61873573 0.10495545
-3.4789 -0.32711166 0.40099287
-0.46250001 -0.91636574 -0.39025074
-3.4512 -0.31322438 0.45583767
-3.303 0.89849955 -0.043535322
-0.51480001 -0.9553504 -0.13230155
-0.28259999 -0.13685082 -0.50929803
-3.3090999 -0.3095772 0.64707625
-0.43690002 -0.90296036 -0.46800417
-0.33469999 -0.077906415 -0.11913497
-0.4806 -0.73156828 0.066477701
-3.7499001 -0.20816824 -0.18891481
-0.33070001 -0.61209655 -0.68133724
-3.5915 0.061494671 -1.3105282
-0.40130001 -0.85179549 -0.61708438
-0.48479998 -0.95449221 -0.16769016
-3.7795999 -0.26900432 -0.31093261
-0.3028 -0.060385011 -0.17473713
-3.5613 0.57638472 -0.070479304
-3.7609 -0.22720802 -0.13794672
-0.41859999 -0.91893601 -0.37740189
-3.4289 0.78019619 -0.015857995
-3.5499001 0.60934722 -0.061620846
-0.33039999 -0.13974693 -0.0079848468
-3.5446999 0.64082253 -0.083487414
-0.2475 -0.23552105 -0.59757298
-0.32080001 -0.6548233 -0.75517839
-0.38850001 -0.39201704 0.13447316
-3.6278999 0.066100918 -1.3038265
-0.2493 -0.322211 -0.63976759
-0.2432 -0.10698824 -0.46443081
-0.3272 -0.72990716 -0.69215924
-0.37169999 -0.57895631 -1.1013637
-3.7962999 -0.29642326 -0.23778254
-0.2714 -0.054665316 -0.20084049
-0.47220001 -0.94097805 -0.046806961
-0.34450001 -0.27891672 0.098871931
-0.27590001 -0.61604798 -0.68599409
-0.447 -0.84965819 0.046873778
-3.4876001 -0.33024427 0.5350861
-0.23649999 -0.44552633 -0.66140985
-0.3858 -0.61104828 0.10742791
-0.40509999 -0.94420183 -0.23411235
-0.25960001 -0.072874643 -0.13500227
-3.8315001 -0.26942173 -0.2717092
-0.273 -0.11139715 -0.052437291
-3.8336999 -0.18343017 -0.25319564
-0.29089999 -0.5963034 -0.91717768
-3.6345999 0.086696841 -1.3699547
-0.28470001 -0.60685217 -0.87578052
-0.27939999 -0.69961661 -0.65259832
-0.30149999 -0.21641672 0.064604387
-0.34240001 -0.89721262 -0.50060129
-3.5007999 0.7799812 -0.020973057
-3.5292001 -0.32430264 0.52212095
-0.27340001 -0.71701258 -0.69445497
-0.28420001 -0.77257568 -0.68110055
-3.4941001 -0.33078825 0.58078593
-3.3127999 -0.32847151 0.78590441
-3.8445001 -0.26765916 -0.17747146
-3.8498001 -0.2227172 -0.16975005
-0.32800001 -0.52416915 0.13472907
-0.2387 -0.61625075 -0.81153661
-0.19139999 -0.45630687 -0.6618892
-0.28510001 -0.55874127 -1.0743428
-0.16690001 -0.17670584 -0.55277938
-3.3534999 -0.31234661 0.76874375
-0.27450001 -0.2542178 0.08606635
-0.26410002 -0.56385905 -1.0107657
-0.2929 -0.61442828 -1.0775616
-0.30779999 -0.90599918 -0.45077002
-3.6214001 0.67529249 -0.065325871
-0.27419999 -0.8365646 -0.64760321
-0.29300001 -0.54339004 -1.156221
-0.20989999 -0.64018404 -0.70862919
-3.5469999 0.80733502 -0.020617709
-0.30860001 -0.50706309 -1.2395793
-3.5285001 0.85296649 -0.05308716
-0.32359999 -0.71081698 0.076635465
-0.21169999 -0.60118824 -0.84513146
-0.2344 -0.75776458 -0.68965864
-0.26949999 -0.5554986 -1.1255579
-0.29930001 -0.59729546 0.11178221
-0.27219999 -0.59358543 -1.1174483
-0.30309999 -0.66795594 0.074851081
-0.29710001 -0.92742741 -0.32924479
-0.3233 -0.49376711 -1.3126811
-0.1287 -0.29960635 -0.63263398
-0.3351 -0.47717205 -1.3641818
-0.3141 -0.80617517 0.019102648
-3.4433 -0.33992413 0.74316639
-0.1992 -0.63592708 -0.88019645
-0.3258 -0.55695832 -1.3326576
-0.1163 -0.10926543 -0.4687925
-0.11570001 -0.082651772 -0.41759324
-0.33090001 -0.94817948 -0.053763151
-3.4193001 1.0274105 0.017781377
-0.2097 -0.58994174 -1.0344547
-3.4442 1.0256613 -0.021824047
-3.5153999 0.94527173 -0.038131297
-0.31400001 -0.81086022 0.11189882
-3.4942999 0.98460031 -0.031399712
-0.2124 -0.86989355 -0.58412635
-0.1789 -0.76080561 -0.68796086
-0.1697 -0.74332821 -0.43579501
-0.15959999 -0.70761591 -0.64811933
-3.6479001 0.78843594 -0.040704668
-3.4331999 1.061981 0.0094580203
-3.4233 -0.31328258 0.82818431
-0.26100001 -0.76488137 0.077459797
-0.2098 -0.64544171 -1.1084158
-0.28060001 -0.79604864 0.1067933
-0.22480001 -0.61594927 0.10585295
-0.1523 -0.75546122 -0.66356218
-0.24860001 -0.47146013 -1.321136
-0.31189999 -0.81593668 0.18157588
-0.57179999 -0.39045638 -1.8450289
-0.2735 -0.84519655 0.054971531
-0.15900001 -0.23140147 0.074147299
-0.1697 -0.83395922 -0.53280675
-0.1697 -0.83306468 -0.59834707
-0.27250001 -0.5475601 -1.3583153
-0.057600006 -0.1840291 -0.56077242
-0.086500004 -0.52357829 -0.65527016
-0.2534 -0.81254613 0.069055215
-0.13159999 -0.65097368 -0.85705775
-0.18509999 -0.90269989 -0.46948141
-0.35479999 -0.41836861 -1.5704037
-0.1065 -0.10116921 -0.068403795
-0.1697 -0.86428469 -0.44950724
-0.1023 -0.62924433 -0.68832099
-0.26269999 -0.94730389 -0.047211587
-0.26539999 -0.47370866 -1.4108899
-0.050500005 -0.36222395 -0.65240782
-3.6148 0.90909612 -0.033949614
-3.5043001 1.0362858 0.021580249
-0.21439999 -0.46558598 -1.3198972
-3.5918 0.9542228 -0.030155793
-0.094600007 -0.68957382 -0.49993509
-3.6387999 0.88515639 -0.017963842
-3.4274001 -0.34178671 0.88733321
-0.1512 -0.83370095 -0.25900221
-0.2624 -0.43308422 -1.4581537
-0.44400001 -0.89185822 0.46875519
-0.10079999 -0.66522473 -0.82057822
-0.1697 -0.78531146 -0.07906583
-0.10789999 -0.75193 -0.38989133
-0.51730001 -0.38125822 -1.8511243
-0.16760001 -0.92426699 -0.34716827
-0.49019998 -0.34308591 -1.8280451
-0.317 -0.40008163 -1.5779427
-0.2318 -0.78921938 0.14465438
-0.032399997 -0.43182036 -0.6608209
-0.13069999 -0.80297494 -0.25358438
-0.15439999 -0.87811577 -0.26683375
-0.2247 -0.55122191 -1.3640382
-0.1697 -0.83817822 -0.088489212
-0.3802 -0.36989984 -1.6949798
-0.13870001 -0.44064155 0.13899834
-0.074200004 -0.55644912 -0.92091388
-0.1697 -0.87651294 -0.11352634
-3.5738001 -0.31866553 0.77636218
-0.0581 -0.57647556 -0.84189081
-3.5306001 -0.3158778 0.82792979
-0.099800006 -0.75629508 -0.24535346
-0.15900001 -0.77754396 -0.0010315031
-0.17730001 -0.95341712 -0.89190596
-0.10770001 -0.33326784 0.12147744
-3.6659 0.91692924 -0.024241924
-3.5532999 1.0553732 0.021594971
-0.16679999 -0.5155825 -1.3093183
-0.076199993 -0.77028781 -0.68313414
-0.060499996 -0.16071402 0.013602197
-0.1697 -0.92914122 -0.11508888
-0.40099999 -0.3597669 -1.769147
-0.2094 -0.95982051 -1.0749996
-0.3777 -0.87349612 0.46021396
-0.2124 -0.82838786 0.16465674
-0.18880001 -0.90755117 0.010670781
-3.5237 -0.33495995 0.86589283
-0.1083 -0.476845 -1.2203398
-0.1057 -0.76009011 -0.99896145
-3.6443999 0.97892201 0.00080350041
-3.5811999 -0.3188979 0.81338435
-0.060499996 -0.22537154 0.071047291
-0.1627 -0.81638694 0.068377987
-0.030499995 -0.69273418 -0.48201162
-0.029899999 -0.67070484 -0.69563156
0.034099996 -0.15541969 -0.52952981
-0.33329999 -0.83006328 0.44654834
-0.013699993 -0.61188388 -0.69348484
-0.46060002 -0.40606537 -1.8670744
-0.089100003 -0.64006364 -1.0911192
-0.40109998 -0.35042799 -1.8042586
-0.2834 -0.37246951 -1.6366396
-0.075599998 -0.35249367 0.12570308
-0.14750001 -0.54934525 -1.3240042
-0.1785 -0.42549852 -1.4378277
-0.060699999 -0.81545007 -0.40109164
-0.075299993 -0.5865621 -1.1002678
-0.023900002 -0.57095188 -0.90316254
-0.0011000037 -0.07902395 -0.11567649
-0.34490001 -0.34375834 -1.7476403
-0.16420001 -0.97313225 -1.031754
-0.023000002 -0.73205662 -0.69436598
-0.053800002 -0.853203 -0.61601251
-3.6185 1.0660568 -0.0078978986
-0.090499997 -0.45902786 -1.2741636
0.0038000047 -0.66333556 -0.64873958
0.0090999901 -0.58102173 -0.79192114
-0.1657 -1.044894 -0.94784039
-0.032299995 -0.68096638 -0.92134249
-0.062399998 -0.89925724 -0.41586909
-0.056099996 -0.7286343 -0.99422723
-0.034999996 -0.75368172 -0.86369359
0.011299998 -0.56128365 -0.86124688
-0.37529999 -0.38760251 -1.818023
-0.23909999 -0.36973342 -1.6233629
-0.1195 -0.95808387 -0.12658942
-0.061199993 -0.80064386 -0.94346029
-0.082399994 -0.86611497 -0.94647509
-0.2502 -0.83776605 0.37563342
-0.25650001 -0.81189102 0.4056831
-0.030300006 -0.60757649 -1.0438598
-0.0625 -0.51249063 0.13587441
-0.047399998 -0.89511144 -0.51251751
-0.13139999 -0.49392948 -1.3969901
-0.077800006 -0.93605769 -0.28029984
-0.028200001 -0.83994669 -0.64109159
-0.070099995 -0.63381565 0.096610025
-0.038599998 -0.8801384 -0.56460881
-3.4811001 -0.32460287 0.98682874
-0.0044 -0.20381308 0.053016916
0.032000005 -0.63397443 -0.62751865
-0.095799997 -0.9565829 -0.16389555
-0.099099994 -0.95430374 -0.93582714
-0.084700003 -0.75993627 0.063811138
-0.1358 -0.9378475 -1.1109297
-0.18180001 -1.1457956 -0.91922718
-0.077399999 -0.92972893 -0.882855
-0.32100001 -0.83337653 0.53156459
-0.080400005 -0.78837699 0.037370786
0.071399987 -0.44743219 -0.66154283
-0.32120001 -0.9259364 0.47716528
-0.1179 -0.8367995 0.120221
-3.5476 -0.31648731 0.94368249
0.019499987 -0.72977179 -0.38598424
-0.2511 -0.81339788 0.44187123
-0.087599993 -0.5523057 -1.3256432
-0.40289998 -0.29683533 -1.9072165
-0.047000006 -0.55365825 -1.2218004
-0.060900003 -0.94218749 -0.24553612
-0.062000006 -0.94904447 -0.85681349
-0.1221 -1.0096503 -1.0313898
0.062000006 -0.077483714 -0.12038049
0.10100001 -0.07893756 -0.41043961
-0.0845 -0.88282007 0.020717919
-0.077199996 -0.8306098 0.058051303
0.031699985 -0.76415944 -0.68621677
-0.0018000007 -0.38938138 0.13392247
-0.1531 -1.1376051 -0.96510184
-0.018800005 -0.7669341 -0.061203256
-0.0044 -0.42754382 0.13958161
-0.065200001 -0.42542705 -1.3823727
0.0026000142 -0.87965959 -0.41241348
-0.049799994 -0.78909159 0.064458206
0.070800006 -0.55576795 -0.85509562
-0.4655 -0.26730198 -2.0217278
-0.1831 -0.84521782 0.36030662
0.051899999 -0.74204946 -0.65439397
-0.2397 -0.32992935 -1.7373831
-0.024399996 -0.93857563 -0.26602012
-0.020899996 -0.77603322 -0.0095993429
-0.134 -1.0826029 -1.0553215
-0.25170001 -0.83903497 0.49858087
