# .PCD v0.7 - Point Cloud Data file format
VERSION 0.7
FIELDS x y z
SIZE 4 4 4
TYPE F F F
COUNT 1 1 1
WIDTH 281
HEIGHT 1
VIEWPOINT 0 0 0 1 0 0 0
POINTS 281
DATA ascii
-0.79690003 -1.8100744 1.1488817
-0.8416 -1.8375103 1.0959902
-0.77020001 -1.7337778 1.1345274
-0.75310004 -1.7738 1.0677764
-0.71820003 -1.8459249 1.0855956
-0.80030006 -1.7269188 1.0774639
-0.84770006 -1.7043622 1.2024097
-0.71250004 -1.793599 1.0479776
-0.6972 -1.8299443 1.0491089
-0.85299999 -1.6856236 1.2348659
-0.64710003 -1.7665875 1.1068089
-0.77289999 -1.6514704 1.1998641
-0.65149999 -1.7842652 1.0573113
-0.7902 -1.6296916 1.1775196
-0.70660001 -1.6427025 1.1908132
-0.60369998 -1.772103 1.1346688
-0.81689996 -1.6792598 1.3020411
-0.60680002 -1.7784669 1.0848887
-0.99500006 -1.7831337 1.1024249
-0.75370002 -1.6378942 1.2618067
-0.87439996 -1.6803912 1.3031723
-0.78930002 -1.6122261 1.2368457
-1.0173999 -1.7392224 1.1290827
-0.83129996 -1.7535766 1.374378
-0.83380002 -1.5708603 1.116991
-0.68900001 -1.5807599 1.1271734
-0.96250004 -1.7089583 1.3310323
-0.84789997 -1.8570265 1.4154608
-0.57429999 -1.678694 1.2470281
-0.61650002 -1.5993567 1.1463361
-0.57840002 -1.7153221 1.2955356
-0.98760003 -1.6374699 1.2613823
-1.0575999 -1.8129029 1.0445127
-0.96429998 -1.5833055 1.1298605
-0.98970002 -1.8067511 1.359246
-1.0733999 -1.8427428 1.073504
-0.73180002 -1.845147 1.4303102
-1.0687 -1.7069076 1.1613975
-0.5643 -1.637894 1.1946316
-1.0495 -1.6716231 1.2205822
-0.50440001 -1.729818 1.1384872
-1.1003 -1.7714666 1.1353053
-1.0288 -1.6844923 1.3071322
-0.98750001 -1.8365911 1.3899343
-0.59610003 -1.5638599 1.1897526
-0.88609999 -1.9034834 1.4681406
-0.91090006 -1.4858661 1.1137385
-1.1087999 -1.728333 1.2787066
-0.59650004 -1.5256763 1.1525588
-0.89340001 -1.4671277 1.0955658
-0.80600005 -1.4550362 1.0837572
-0.5553 -1.522282 1.1491644
-0.72619998 -1.4553899 0.99840939
-1.1558 -1.6684409 1.2217844
-0.99110001 -1.4722897 1.0971922
-0.4727 -1.5823861 1.1439319
-1.1042 -1.7816489 1.4017432
-1.2004 -1.7523746 1.1159306
-1.1257999 -1.544768 1.0989599
-0.94629997 -2.0667543 1.4660897
-0.56080002 -1.4709462 1.01439
-0.86110002 -1.4196101 0.96277118
-0.53369999 -1.460693 1.0892725
-0.69319999 -2.0869069 1.4790299
-0.81160003 -1.3868711 1.0174305
-0.95719999 -1.9370002 1.5447907
-1.0410999 -1.9439298 1.5002429
-0.86640006 -2.0433493 1.5283859
-0.76609999 -1.3813556 1.0120566
-0.34329998 -1.7917604 1.1062431
-0.43080002 -1.5354342 1.0916061
-1.0814999 -1.4543999 1.0742112
-1.2601 -1.7629106 1.1438613
-0.94020003 -2.0849979 1.4996066
-1.2718999 -1.8266209 1.1068796
-1.0644 -1.416216 1.0361688
-1.2533 -1.762557 1.3190117
-1.2524999 -1.6562787 1.2712817
-1.0206 -1.4085087 0.96001345
-1.2808 -1.6969374 1.1713676
-0.85920006 -1.3738604 0.91786987
-1.1357 -1.8937958 1.5109203
-1.2105 -1.8174992 1.4366035
-1.0246999 -1.3831942 1.0045612
-0.63940001 -1.3545563 0.98596424
-1.2436 -1.7756385 1.3934698
-1.0883 -2.0864828 1.479454
-0.28399998 -1.7911241 1.0504525
-0.85359997 -1.4244893 0.7975204
-0.73500001 -1.4283077 0.79370201
-0.38710004 -1.4898967 1.0416843
-0.77780002 -1.3458589 0.88619155
-0.92860001 -1.5071501 0.7260319
-0.39039999 -1.4625316 1.0824845
-1.3074 -1.7866693 1.3453867
-0.99110001 -1.3331311 0.95520514
-0.70770001 -1.3826993 0.80084378
-0.34060001 -1.4899673 1.0929496
-1.1532999 -2.0739667 1.4931011
-0.69310004 -1.4867853 0.69831324
-0.91800004 -1.4246305 0.72864807
-0.99640006 -1.4110543 0.77248877
-0.88249999 -1.411832 0.72857738
-0.37529999 -1.4359443 0.97853965
-0.90630001 -1.4741988 0.66012949
-1.0634999 -1.3350402 0.89008063
-1.4009 -1.8370154 1.0964851
-0.41479999 -1.4741988 0.8152687
-0.49690002 -1.3173627 0.94961905
-0.5165 -1.500291 0.70191944
-1.3944999 -1.6921293 1.0774639
-1.2579 -2.0643501 1.4684939
-0.48570001 -1.3590819 0.86292773
-0.51359999 -1.4431568 0.73854756
-1.3867999 -1.7904171 1.3530941
-1.2644999 -1.4215194 0.9851864
-0.45179999 -1.3763353 0.84567434
-0.96139997 -1.2606525 0.88286811
-0.48140001 -1.4247721 0.75877094
-1.4129 -1.665754 1.2322495
-1.3659999 -1.5207266 1.0876462
-0.8567 -1.2333583 0.86052352
-1.4258 -1.7079684 1.2743224
-1.0073999 -1.25344 0.87311006
-0.32640004 -1.3983263 0.93979031
-0.33530003 -1.3590819 0.99034828
-1.4088 -1.8440863 1.4069049
-0.35350001 -1.5442731 0.72864819
-1.3672999 -1.4784415 1.0462098
-1.4359 -1.6283481 1.2331688
-0.23599999 -1.4502987 1.0429571
-1.2893 -1.9686786 1.583823
-1.0253999 -1.2629153 0.81753147
-0.34329998 -1.4786536 0.76343775
-0.85620004 -1.2309541 0.77750921
-0.91259998 -1.2058519 0.8294816
-1.3124 -2.009408 1.5674181
-1.4514999 -1.5690925 1.1719334
-1.0105 -1.2435406 0.79773247
-0.44200003 -1.2608647 0.89467674
-1.3420999 -1.9953365 1.5529225
-1.0752 -1.2359746 0.85182613
-1.4669 -1.5443438 1.1159304
-0.6006 -1.2266408 0.76357925
-1.5022 -1.655501 1.2266634
-1.4979 -1.6181659 1.2195923
-1.3904999 -1.9465461 1.5599935
-0.87350005 -1.16986 0.79490399
-0.69800001 -1.2021041 0.74116385
-0.56870002 -1.2214081 0.75820518
-0.8373 -1.1609505 0.78769153
-0.27149999 -1.4566625 0.75756878
-0.69260001 -1.1526066 0.78670156
-1.5306 -1.5979426 1.171792
-1.5482999 -1.6914221 1.2642815
-1.4377999 -1.9515666 1.5627513
-1.1955999 -1.2204889 0.82969373
-1.4401 -2.0523295 1.5194056
-0.648 -1.1764362 0.71351606
-1.4385999 -2.0014884 1.5627513
-1.3678 -1.3227365 0.89361614
-0.19930001 -1.4112663 0.80833906
-0.13739999 -1.3957807 0.98080248
-0.23639999 -1.3211809 0.86066496
-1.3707 -2.0444098 1.6575744
-1.5529 -1.5395355 1.1365781
-1.2161 -2.142839 1.7480841
-1.4068999 -2.0163376 1.6302092
-1.1161 -1.1695064 0.78182256
-1.4669 -2.0153477 1.5558217
-1.4187 -2.0557942 1.615077
-0.24459998 -1.2610769 0.89488894
-1.4993 -1.9727091 1.5376489
-0.30660003 -1.252733 0.79037857
-1.4943999 -2.0304799 1.5354569
-1.3082999 -2.1158984 1.7272243
-1.6056 -1.6375406 1.2337346
-1.2361 -2.1592441 1.7640646
-0.45880002 -1.1389595 0.77602434
-1.6014999 -1.8162264 1.3893688
-0.64600003 -1.095826 0.73119372
-1.5107 -2.1145549 1.4800904
-1.3625 -1.2664509 0.83817893
-0.58380002 -1.1427779 0.67745364
-1.6236 -1.7272016 1.324244
-0.97859997 -1.0976645 0.71577877
-1.6342 -1.6783406 1.255867
-1.5885999 -1.8652288 1.4667969
-1.5328 -2.0385408 1.5214562
-1.4894999 -2.0108929 1.6205218
-1.6292 -1.7992557 1.3740952
-1.4734999 -2.0606027 1.6225724
-1.4427999 -1.2963614 0.8942526
-1.3525 -2.1537285 1.7156985
-0.21999998 -1.2646123 0.80254078
-1.5477999 -1.4090743 0.98744923
-1.2562 -2.1850533 1.7871871
-0.23720001 -1.2129228 0.84800774
-1.3384 -1.2095288 0.81109679
-1.0407 -1.11414 0.67243314
-1.5704999 -2.0767245 1.4764843
-0.45249999 -1.1041698 0.74208313
-1.6337999 -1.8827652 1.4563317
-0.98840004 -2.2865937 1.8870304
-1.3601999 -1.2082559 0.78097403
-1.2136999 -1.1380403 0.70467722
-0.24029998 -1.174527 0.81060183
-1.2944 -2.2005391 1.8060668
-0.90319997 -1.0559452 0.6457752
-1.6932 -1.5908715 1.1816914
-0.59670001 -1.0615313 0.63849199
-0.58740002 -1.0379139 0.67512012
-1.6285 -2.0893817 1.4595845
-1.489 -1.2547836 0.83315855
-1.0361999 -1.0422273 0.65624034
-1.2896999 -2.2363186 1.8316641
-0.5704 -1.0714308 0.60653079
-1.5843999 -1.3358179 0.92720366
-0.75980002 -1.0239133 0.62378418
-0.018700004 -1.4035589 0.77998412
-1.449 -1.2026697 0.7984395
-1.1351 -1.0654204 0.64619946
-0.46680003 -1.0600464 0.64860368
-1.0031999 -2.3218079 1.9392149
-0.94800001 -1.036924 0.59083301
-1.1868 -2.3179188 1.8735247
-0.83240002 -0.99909377 0.62286496
-1.5518999 -2.1115849 1.6765246
-1.1897999 -1.0637233 0.67024112
-0.5219 -1.0330349 0.63007748
-1.0041 -1.0180444 0.61932945
-1.3296 -2.2436018 1.8448868
-1.2263999 -2.2865937 1.8870304
0.031100005 -1.4182667 0.79851025
-1.6372 -2.1969328 1.4764843
-0.80469996 -1.0691681 0.50301039
-0.884 -1.0189636 0.57103407
-0.59990001 -0.99230564 0.62795615
-1.762 -1.7794569 1.3704183
-1.2594999 -2.2955036 1.879818
-1.7342 -1.8904727 1.4689891
-0.61730003 -1.0256103 0.563963
-0.95550007 -1.0198827 0.55766964
0.040299997 -1.4184082 0.76513487
-1.4255999 -2.2366014 1.8006928
-1.1287999 -1.1197262 0.50308102
-0.68349999 -1.0425808 0.5120613
-1.6576999 -2.0234795 1.6246231
-1.7881999 -1.7025943 1.2874746
-1.0865999 -1.1017658 0.49473724
-0.09449999 -1.2096702 0.74604297
-1.0663999 -1.0311258 0.56778133
-1.1185 -1.0643598 0.55010366
0.015500009 -1.2802395 0.86526114
-0.56150001 -1.0207313 0.5620538
-1.6525999 -1.3254236 0.91072816
-0.4016 -1.0449142 0.61027843
-0.94330007 -0.97229445 0.58531761
-1.3074 -2.3165045 1.8745146
-1.0029999 -0.96989024 0.5841862
-1.1204 -1.0204484 0.55894256
0.074300006 -1.4392678 0.72376913
-1.1768999 -1.1033214 0.48667622
-0.9896 -0.99803317 0.51531404
-0.024700001 -1.2079731 0.756791
-0.31190002 -1.0303479 0.6286633
-0.82569999 -0.98283041 0.48582768
-1.7622 -2.0923517 1.5015864
-1.8325 -1.8233682 1.4115012
-0.83260006 -1.0591272 0.38959044
-0.86260003 -0.93241358 0.54076988
-1.8032999 -1.9242016 1.5055463
-0.7597 -0.92711031 0.53815359
0.1185 -1.4573697 0.69944459
-1.0784999 -0.95002055 0.56007385
-0.21879999 -1.0524803 0.6408962
-1.5491999 -2.2088122 1.817734
-1.8007998 -1.951991 1.5326285
-1.6344999 -2.1476474 1.7524681
-1.2553999 -1.0061648 0.57746863
-1.5620999 -1.1514753 0.74031538
