# .PCD v0.7 - Point Cloud Data file format
VERSION 0.7
FIELDS x y z
SIZE 4 4 4
TYPE F F F
COUNT 1 1 1
WIDTH 1429
HEIGHT 1
VIEWPOINT 0 0 0 1 0 0 0
POINTS 1429
DATA ascii
-0.88619995 -0.22719535 0.3424986
-0.88099998 -0.86429834 0.53019345
-0.87159997 -0.99339241 0.34019089
-0.87149996 -0.73364305 -0.15970817
-0.87009996 -0.31189013 -0.04680571
-0.86829996 -0.21096629 0.25498909
-0.86210001 -0.2690815 0.43424755
-0.8599 -0.96921778 0.044919312
-0.85339999 -0.2495448 0.046809018
-0.83449996 -0.70520306 0.61223221
-0.81819999 -0.56023216 0.61833531
-0.81649995 -0.20912942 0.24080755
-0.81509995 -0.43598628 0.58233511
-0.81049997 -1.7421622 3.3100982
-0.80589998 -0.3486352 -0.08176136
-0.79909998 -0.47924525 -0.15693817
-0.79439998 -0.27535734 0.44251764
-0.79369998 -0.84599614 -0.10090688
-0.7902 -0.21256918 0.26676536
-0.7902 -0.33562714 0.51510799
-0.78349996 -0.30059451 -0.031970292
-0.7791 -0.72652268 -0.1626409
-0.7726 -0.23657405 0.36514303
-0.77129996 -0.9089269 0.48849228
-0.77019995 -0.74312443 0.599114
-0.76819998 -0.4965907 0.60750508
-0.76789999 -1.8008997 3.2586346
-0.76440001 -0.80100459 0.57516539
-0.75509995 -0.21829981 0.13309109
-0.75119996 -0.24862336 0.39421302
-0.74549997 -1.0109795 0.23685265
-0.73579997 -1.7473619 3.3079045
-0.73459995 1.3602142 -2.3533752
-0.7324 -0.63762057 -0.17782399
-0.73049998 -0.26224184 0.018000931
-0.72359997 -0.5903331 -0.17892823
-0.72119999 -1.0010691 0.31208736
-0.7184 -1.8824682 3.1979156
-0.7148 -0.5180105 0.61280525
-0.71329999 -0.23456138 0.083056986
-0.70699996 -1.0066917 0.1736258
-0.70469999 -1.0086398 0.25460023
-0.69749999 -0.87689996 -0.077179968
-0.6918 -0.82500434 -0.13266584
-0.68049997 -0.43842193 0.58335376
-0.67109996 -0.75357389 0.59481305
-0.67009997 1.3332136 -2.3566089
-0.6692 -0.22913912 0.34726533
-0.66859996 -0.5889073 -0.17879781
-0.66429996 -0.63021785 0.62215412
-0.66179997 -0.29838663 -0.029194444
-0.65849996 1.3886895 -2.3358958
-0.65849996 -0.97465897 0.057943672
-0.65109998 -1.9293225 3.1462693
-0.64919996 -0.94572401 0.0028268695
-0.64319998 -0.91475832 -0.037607431
-0.64289999 -0.85440964 0.5378657
-0.64139998 -1.8300273 3.2288849
-0.63159996 -0.31525689 -0.051174313
-0.63009995 -0.69149625 -0.17070863
-0.61989999 -1.0022823 0.30318862
-0.6182 -0.43386978 -0.13813075
-0.60909998 -0.87632906 -0.13296881
-0.60879999 -0.55148304 -0.17381862
-0.60069996 -0.82361597 -0.17147049
-0.59979999 -0.46630746 -0.15154698
-0.5995 -2.0561109 3.0596733
-0.59939998 -0.40278637 0.5666312
-0.59919995 -0.50563681 0.61117345
-0.5952 -0.20949021 0.24383242
-0.59469998 -0.34126776 -0.076122135
-0.59349996 -0.68129063 0.6154148
-0.58859998 -0.99948734 0.32454765
-0.58629996 -0.91008574 0.48689944
-0.58559996 1.1287289 -2.4348307
-0.58399999 -0.58809453 0.62199432
-0.58379996 -0.23157865 0.090090722
-0.58279997 -0.38790706 -0.11194053
-0.57879996 -2.1192427 2.9978209
-0.57859999 -1.0735494 0.19922683
-0.57519996 -0.22169079 0.32916445
-0.5751 -0.21307859 0.17224769
-0.5722 -0.94645703 -0.03870365
-0.57179999 -1.9051111 3.1631341
-0.5546 -0.66336071 -0.17444083
-0.55439997 -0.39414907 0.56007093
-0.55149996 -0.88977277 -0.15008363
-0.55129999 1.242255 -2.4116638
-0.55089998 -0.52752066 -0.17072263
-0.54689997 -0.77416307 0.5862745
-0.54549998 -0.33149508 0.51195109
-0.54159999 -1.0181341 0.066444993
-0.53929996 -0.21946295 0.12410572
-0.53599995 -0.36966169 -0.097942472
-0.53579998 1.1515214 -2.4197087
-0.5223 -2.024888 3.0589936
-0.52139997 -1.967284 3.1338205
-0.51969999 -0.66929114 0.61703104
-0.51889998 1.0792973 -2.4480126
-0.51729995 -0.29543123 0.46868664
-0.51129997 -0.25869226 0.41865289
-0.5072 -0.20756316 0.22889468
-0.49859998 -0.21915051 0.12636456
-0.49579999 -0.49613088 0.60730863
-0.49219999 0.99890989 -2.4731777
-0.48730001 -0.34045172 -0.075535566
-0.48660001 -1.0158701 0.34072337
-0.48539999 -0.99271214 -0.0047872961
-0.48230001 -2.0424185 2.7061574
-0.47999999 -0.73744166 0.60147119
-0.47590002 -0.87034667 -0.19233057
-0.46650001 0.91254443 -2.3897884
-0.46590003 -0.2770274 -0.0013897419
-0.46290001 -0.82318288 -0.21302065
-0.46169999 -0.97276312 0.38985991
-0.45659998 1.1540673 -2.4427183
-0.45089999 0.82133442 -2.2630081
-0.44610003 -2.0946016 2.8067415
-0.44579998 0.88088232 -2.348948
-0.44369999 -1.086858 0.29107821
-0.44280002 1.068311 -2.4821839
-0.43990001 -0.25559491 0.41108808
-0.43930003 0.91883463 -2.3594835
-0.43899998 -0.39004532 -0.11363694
-0.43680003 -2.0959454 3.0388687
-0.43359998 0.88137692 -2.3124046
-0.43350002 -2.111587 2.9777608
-0.42810002 -2.0559583 3.061609
-0.42380002 -1.0245663 0.031785488
-0.41590002 -0.91474563 -0.1602293
-0.41120002 0.70792478 -2.1089766
-0.40900001 0.79739565 -2.204545
-0.40779999 -1.0503616 0.072664529
-0.40720001 0.97590071 -2.4257247
-0.40470001 -0.80480534 0.57354844
-0.4021 0.82207745 -2.273895
-0.4014 -2.1169147 3.0209885
-0.39990002 -0.53099191 -0.17111024
-0.39930001 -0.67400169 0.61638993
-0.39790002 -0.67184031 -0.19215366
-0.3908 -1.0820242 0.32250562
-0.38800001 -0.89894992 0.50141168
-0.38570002 -1.9939861 2.5732698
-0.38519999 1.0126784 -2.4510257
-0.38330001 -2.1087863 2.82511
-0.37960002 0.61807102 -1.9831456
-0.37900001 -0.27749035 0.44521213
-0.3741 -0.94722933 -0.11316583
-0.37080002 0.40397781 -1.7587253
-0.3585 -1.1153381 0.20500687
-0.35730001 0.7671923 -2.2044311
-0.35640001 -0.30727798 -0.040794194
-0.35190001 0.67987162 -2.0819871
-0.35159999 -1.8385856 2.0839083
-0.3513 -2.0834999 2.8651125
-0.3511 -1.9249136 2.4152331
-0.34810001 0.90991622 -2.4012363
-0.34710002 -2.1183631 2.8420975
-0.34690002 -0.38686797 0.55445969
-0.33660001 -0.435009 -0.13855752
-0.33239999 -0.98041672 -0.064083785
-0.33050001 -1.9189756 2.452148
-0.32950002 -2.0100713 2.6897302
-0.3292 0.82962519 -2.2279682
-0.32750002 -0.29003811 -0.018254519
-0.3263 0.53557688 -1.8694617
-0.32460001 -0.4187136 0.57521796
-0.32300001 -2.1242356 2.9742689
-0.32179999 -1.8956838 2.3440053
-0.31890002 -0.92334282 0.46966147
-0.3145 -1.9915133 2.5499868
-0.3136 -1.9631157 2.487401
-0.31310001 -0.54948437 0.61691952
-0.3096 0.73182851 -2.1623793
-0.30930001 -0.8738907 0.52280778
-0.3082 0.69942755 -2.0614593
-0.30630001 -0.64959991 -0.20067516
-0.30180001 -1.802032 2.1451957
-0.29879999 -1.8061409 2.1069126
-0.2987 0.67927808 -2.0907593
-0.2947 -1.8636739 2.3197627
-0.2947 -1.8382089 2.250056
-0.29160002 0.614142 -2.0005403
-0.2915 0.56932455 -1.8995143
-0.2888 -0.71594435 -0.24856314
-0.28740001 -0.46228355 -0.14991662
-0.287 -1.9431341 2.4373915
-0.28600001 -1.0766039 0.094117552
-0.28460002 -0.82344449 0.56163239
-0.27900001 0.62913352 -1.9689063
-0.278 0.58287269 -1.9587804
-0.27419999 -0.72590297 0.60628557
-0.27200001 -2.0822742 2.7513895
-0.26800001 -0.21006763 0.19523256
-0.26700002 -1.0878986 0.34648043
-0.26660001 -0.85822034 -0.233134
-0.26460001 -0.46024269 0.59234846
-0.26320001 0.47026569 -1.7733394
-0.26160002 0.38034815 -1.6665975
-0.2613 -2.0159643 2.5953374
-0.26109999 0.74855179 -2.1909449
-0.26030001 0.92246217 -2.3997664
-0.25920001 0.39078176 -1.7896692
-0.2586 -2.0647657 2.8194637
-0.25839999 -0.31197673 -0.046855688
-0.25740001 -0.39518207 0.56086016
-0.25710002 -0.20961699 0.24445203
-0.25640002 -2.0480075 2.7858381
-0.25440001 -1.8264818 2.1763442
-0.24830002 -0.27707741 -0.0013031065
-0.248 -1.0710521 0.078501344
-0.24680001 -0.39518785 -0.11752972
-0.24180001 0.66484553 -2.0055614
-0.24180001 0.5254212 -1.8338715
-0.23910001 -2.0345271 2.6358888
-0.23899999 -0.74395388 0.59875059
-0.2349 -1.7560408 2.0201366
-0.23480001 -2.0964627 2.823565
-0.2335 -1.0341904 0.40485522
-0.22550002 -0.99427432 -0.057881653
-0.2225 0.35696512 -1.627097
-0.22240001 0.90164489 -2.35151
-0.2218 -0.010306716 -1.2451636
-0.22 -2.0511076 2.6770077
-0.21920002 0.40862244 -1.6875702
-0.21920002 -1.9429061 2.5477972
-0.2189 0.85714954 -2.3200417
-0.21610001 -0.29917407 0.47356939
-0.21580002 -0.42704782 -0.13534674
-0.21510002 -1.8142467 2.138952
-0.2132 -1.7799609 2.0827675
-0.21250001 0.41043407 -1.7267078
-0.2101 0.46679527 -1.8073283
-0.2096 -1.6750784 1.8409054
-0.20630002 -0.22029044 0.11773899
-0.20379999 0.3292582 -1.5887071
-0.20300001 -1.992589 2.6634502
-0.2024 -0.91411847 0.48168439
-0.20210001 -1.1132042 0.32471105
-0.19769999 0.86570543 -2.2804608
-0.19589999 0.56427222 -1.9459633
-0.1943 -2.0163205 2.7087543
-0.19139999 -0.89481306 -0.21315351
-0.19100001 -0.68204689 0.61532462
-0.18439999 -0.88254374 0.51619536
-0.18279999 -1.8750498 2.2644663
-0.18240002 0.7115795 -2.0579071
-0.17910001 -1.0410903 0.40560594
-0.17630002 0.56275076 -1.8661281
-0.17129999 -1.7743142 2.1349871
-0.17020002 0.82519585 -2.2220962
-0.16730002 0.00042149425 -1.2477453
-0.16600001 0.77166647 -2.2147808
-0.16530001 -1.715899 1.9134088
-0.16480002 -1.1269207 0.17106867
-0.1645 0.33053833 -1.6227244
-0.16429999 -0.26925832 0.0087538064
-0.16390002 0.22913867 -1.4582951
-0.16170001 -0.61973083 0.62358999
-0.16050002 -0.49852195 -0.16494986
-0.16010001 -0.99589825 -0.063668966
-0.15900001 0.24577028 -1.5025018
-0.15799999 0.67680973 -2.1018841
-0.15670002 0.47637039 -1.829513
-0.1552 -0.86568415 -0.23940626
-0.1541 -1.7944894 2.1031315
-0.15020001 0.40082043 -1.7822567
-0.14300001 0.26860589 -1.5388542
-0.1406 -0.94124871 0.44627538
-0.14019999 0.028398156 -1.2130022
-0.13870001 0.36981028 -1.7485453
-0.13819999 -1.7069852 1.9701701
-0.13620001 -0.89175302 0.50914633
-0.13479999 -1.1140106 0.13810778
-0.13060001 -0.98462081 0.43439806
-0.12900001 -1.6098485 1.6767242
-0.12540001 -1.8293722 2.1513503
-0.12490001 -1.8498909 2.3386898
-0.1222 0.33832633 -1.5778136
-0.1222 -1.142656 0.25632295
-0.1217 -0.87387407 -0.23582086
-0.121 -1.7762234 2.1570942
-0.12069999 -1.6609275 1.7827957
-0.1155 0.16585517 -1.3690848
-0.1151 -0.73110271 0.60409176
-0.1125 -1.0020633 -0.05799076
-0.1106 -0.017434418 -1.2712179
-0.1087 -1.5443089 1.4708062
-0.1072 0.28368765 -1.5079765
-0.1037 0.73297864 -2.0919712
-0.10290001 0.44611275 -1.7949053
-0.099699996 -0.29465029 -0.024265975
-0.098599993 -1.6561489 1.8517189
-0.096999995 -1.0888841 0.37558728
-0.096099995 0.37606424 -1.6989776
-0.095999993 -1.9240232 2.5048904
-0.094100006 0.35520995 -1.670257
-0.094000004 -1.2728311 0.7575928
-0.093299992 -0.24920015 0.39561206
-0.091400005 -0.64827764 -0.24136552
-0.090699993 -0.4154225 -0.13048241
-0.089899994 0.41990107 -1.6717054
-0.089299999 -1.5456116 1.5544628
-0.088999994 0.18491283 -1.3842937
-0.088199995 -1.9767356 2.5209911
-0.087999992 -0.26543868 0.42953801
-0.086900003 -0.96287304 -0.12647018
-0.078299992 0.5951823 -1.8959013
-0.078299992 0.44294369 -1.6988162
-0.075400002 0.51759166 -1.8945101
-0.075199999 -1.7905838 2.2037671
-0.0735 0.42497057 -1.751686
-0.072800003 -1.9541929 2.4529464
-0.070699997 0.64684099 -2.0541768
-0.069200002 -1.8580508 2.2074234
-0.068599992 -1.008873 -0.046795815
-0.067799993 -0.38297251 0.5515126
-0.065499999 0.2405048 -1.4453819
-0.058399998 0.11493328 -1.3372855
-0.056499995 -1.5549297 1.4604019
-0.055100001 -1.0816231 0.079210877
-0.052899994 0.09893772 -1.2715803
-0.052600004 -0.20908391 0.20272872
-0.051299997 -0.86380541 -0.2490603
-0.051099993 0.013363421 -1.1931614
-0.050999992 -0.0074211955 -1.1633613
-0.049599998 -1.5997009 1.4897481
-0.049499996 -1.9537237 2.5063334
-0.045799993 -1.6299133 1.6952775
-0.042599998 -1.9284666 2.388587
-0.042499997 -1.5871906 1.6022795
-0.042000003 0.59528267 -1.9908751
-0.041000001 -1.8152637 2.2671137
-0.040899999 0.24332798 -1.5222715
-0.038500004 -0.68880284 0.61442626
-0.037700005 -1.9457471 2.4615176
-0.035800003 -0.88537484 0.51409894
-0.034499995 -1.5975904 1.7232924
-0.034000002 0.30669802 -1.6114317
-0.0339 -1.5366995 1.5112264
-0.031699993 -0.30199367 0.47725314
-0.030199997 -0.042309731 -1.0971326
-0.029700004 -0.57541668 -0.18336436
-0.0277 -1.252655 0.75584698
-0.027499996 -1.5040951 1.4203539
-0.025300004 -0.016861558 -1.2188101
-0.023499995 -1.7644656 1.9873288
-0.021699995 -0.44178718 -0.61081743
-0.017799996 0.50546414 -1.8813049
-0.016400002 0.4118039 -1.7390805
-0.012800001 0.084242642 -1.3029279
-0.012699999 -1.6496809 1.8671159
-0.012400001 -1.4146016 1.2333465
-0.0058000013 -1.8975856 2.3114996
-0.0047999993 -0.13046306 -0.99664664
-0.0045000017 0.33456928 -1.6533061
0.0011000037 0.64775282 -1.9887561
0.0051000044 0.00026622415 -1.1376765
0.0055000037 -0.57034695 0.61965466
0.007100001 0.30964929 -1.5165435
0.007600002 -0.94632304 -0.1551356
0.0077999979 -1.4503107 1.3445966
0.013599999 -1.3990545 1.1848184
0.014899999 -0.25625217 -0.82297349
0.015299998 -0.3068963 0.48354474
0.016100004 0.12409696 -1.3645574
0.0167 -1.2071676 0.75786036
0.017700002 -1.611984 1.7802228
0.018300004 -1.3711374 1.1242642
0.019100003 -1.1470439 0.24732322
0.019299999 -0.61658633 -0.22745636
0.019600004 -0.40302294 0.56684101
0.022 -0.81307274 0.56946802
0.022500001 -1.3249328 0.99863553
0.022799999 -0.72359073 -0.27791932
0.0242 -0.34200865 -0.82063901
0.024599999 -1.742995 2.1043408
0.0264 -0.96859509 0.45104063
0.026700005 -0.28946072 -0.78025448
0.028400004 0.37847167 -1.6017474
0.028800003 -1.3077304 0.75384039
0.028999999 -1.2393583 0.83661634
0.029200003 -0.63148111 -0.31145784
0.029399998 -1.369601 0.97700334
0.031500004 -1.4966018 1.3865751
0.033 -0.11070037 -0.99747658
0.035900004 -1.0385251 0.36436298
0.035999998 -1.0746658 0.44996053
0.0381 -1.1032671 0.51369929
0.038800001 0.41336924 -1.7479919
0.039300002 -1.7541742 1.9547035
0.039300002 -1.8773732 2.2792904
0.0414 -0.32695714 -0.7161088
0.042100001 -1.6530831 1.8902086
0.042200003 -0.97162306 -0.11131474
0.0462 -1.4492209 1.2809089
0.0469 -0.92770863 0.46402317
0.047200002 -0.27141452 0.43728846
0.048500001 -0.49989596 0.60882998
0.050700001 -0.87394065 0.52289438
0.050800003 -1.3332741 1.0278833
0.052900001 -1.033323 -0.004447192
0.056400001 -1.3056004 0.99975121
0.057 -0.38960353 -0.65020216
0.057100002 -0.48326072 -0.60058308
0.059100002 -0.52108341 -0.44367239
0.060000002 -1.5661709 1.4528725
0.063500002 -1.5436037 1.5157849
0.064899996 -0.43203297 -0.57851231
0.065300003 -0.54515469 -0.40837964
0.065799996 -0.76746833 -0.28212103
0.066200003 0.19714308 -1.3648771
0.066300005 0.36831188 -1.5847501
0.066600002 -0.064677954 -1.0431896
0.067400001 -0.22884229 0.096751243
0.068800002 -1.703027 1.8333142
0.069000006 0.10376513 -1.3445417
0.069399998 -1.0590012 0.45022875
0.070600003 -0.70865762 -0.23038426
0.072899997 0.013240844 -1.2575492
0.074000001 -1.8056288 2.0894258
0.074100003 -0.6187067 -0.23318383
0.075500004 -0.54275781 0.61606884
0.075800002 -0.839055 -0.27252933
0.076499999 -1.0874611 0.38472265
0.0766 -0.71068865 -0.27566645
0.077 -0.36117923 0.53476554
0.077500001 -0.32440174 -0.84153497
0.077800006 -0.4500328 -0.63093555
0.078600004 -0.25711188 0.41471559
0.080499999 -0.41146931 -0.62552965
0.081699997 -1.8339195 2.1614265
0.082400002 -1.7662711 2.1532562
0.084600002 -0.23702252 -0.86568022
0.085900001 -0.45858678 -0.52051961
0.086400002 -1.3360274 1.0222523
0.087099999 -1.6770515 1.7715235
0.087300003 -1.1484619 0.25377914
0.0876 -0.1826829 -0.89619923
0.089000002 -1.019681 0.4333241
0.090000004 0.45582688 -1.8037306
0.090300001 -1.8408067 2.1955554
0.090400003 -0.29674104 0.4703553
0.091899998 -1.3891048 1.2205851
0.093500003 -1.1761146 0.72567487
0.096600004 -1.0615966 0.40912411
0.098300003 -1.2333944 0.8036865
0.098900005 -1.1899076 0.75916517
0.099799998 -1.1901515 0.68858767
0.1007 -0.3584007 -0.089246988
0.1014 -0.26560727 -0.78057003
0.1018 0.51680499 -1.8515476
0.1025 -0.29137015 -0.01994732
0.1043 0.48820037 -1.7564031
0.1048 0.1950261 -1.4744104
0.1068 -0.21612614 0.1491262
0.1092 0.32681954 -1.6510834
0.1103 0.0097530484 -1.1233081
0.1109 -0.066647798 -1.0297778
0.1113 -0.57595921 -0.35122463
0.1117 0.1370998 -1.3960791
0.1128 -1.5180185 1.5694699
0.1131 0.3650834 -1.6981581
0.1132 -1.3700945 1.0098581
0.1135 -0.46687707 -0.15176043
0.1156 -0.7506234 -0.28509733
0.118 -1.5504625 1.4822646
0.1182 -1.0655332 0.48814228
0.1184 0.30276626 -1.6198217
0.1252 -0.88944155 0.5109427
0.12530001 -0.32588542 -0.84816515
0.12819999 -1.431221 1.2191323
0.1286 0.42289895 -1.6596977
0.1301 -1.3487749 1.1301316
0.1356 -0.26051107 -0.7773968
0.1376 -0.8920843 -0.22427979
0.1376 -1.1091807 0.49354193
0.1383 -0.55031496 -0.37764177
0.13960001 -1.60444 1.4843563
0.1401 0.41055483 -1.7399169
0.1401 -0.63364559 -0.26270893
0.1402 -0.50185108 -0.64018369
0.14030001 0.068685323 -1.1907817
0.14030001 -1.4545791 0.28638956
0.14030001 -0.47499433 -0.55170095
0.1406 -0.80869955 -0.71630657
0.1416 -1.6730452 1.754784
0.1419 -1.3903916 0.9942137
0.14320001 -1.2780118 0.97676611
0.14489999 -1.6057339 0.49079761
0.1469 -1.3811123 1.1053416
0.1504 -0.010918498 -1.1969038
0.1508 -0.57096583 -0.4224734
0.15540001 0.19681245 -1.3519044
0.1582 -1.2288861 0.74947804
0.1586 -0.47684357 -0.15589795
0.1593 -1.5221784 0.33927521
0.1594 -1.2879121 0.89091396
0.1612 -1.1309035 0.32176703
0.16260001 -0.022585183 -1.0726966
0.1649 -0.96212304 -0.1277692
0.1655 -1.759275 2.1113384
0.16589999 -1.5034266 0.4567959
0.16690001 -1.1919118 0.67163646
0.1679 -1.1641598 0.73176873
0.1679 -1.7082179 1.834705
0.1682 -1.0367362 -0.63353562
0.1691 -1.4944904 0.53631794
0.16960001 -1.293385 0.73279333
0.17 -1.4415772 1.3916699
0.17109999 -0.75406164 -0.28454205
0.17109999 -1.49265 1.3431305
0.1715 -0.18250659 -0.87450457
0.1727 -0.86530399 -0.54206479
0.17410001 -1.4933944 1.5242196
0.1743 -1.3935113 1.2686169
0.1754 0.15860239 -1.4311227
0.1761 -1.6509573 0.465727
0.1767 0.28148395 -1.4615598
0.1777 -1.5898657 0.40631291
0.17919999 -1.309664 0.93458939
0.18009999 0.13211396 -1.2652433
0.18009999 -1.7376668 1.913312
0.18020001 -1.5854423 1.7500514
0.1803 -1.0317996 0.25231406
0.1803 -0.85261273 -0.22504672
0.1803 -0.9328562 -0.095860869
0.1803 -1.0592593 0.21567559
0.1803 -0.82388413 -0.041606039
0.1803 -1.1081791 0.19620737
0.1803 -0.98534405 0.27925062
0.1803 -0.87586945 -0.16376486
0.1824 -1.0242231 -0.020208836
0.1831 -0.25142229 0.042260915
0.1832 -0.31111068 -0.78455579
0.18430001 -0.93213338 -0.6259129
0.1858 -0.83599931 -0.68022192
0.1873 -1.0649742 0.40717408
0.1904 -0.71770632 -0.22891131
0.191 -0.51724088 0.61267227
0.191 -1.0047343 0.35523555
0.1921 -1.246303 0.92544472
0.1943 -1.5241797 1.6049416
0.1956 -1.0083312 0.071065575
0.19690001 -1.0133495 -0.67384243
0.1971 -0.046759158 -1.1536261
0.19769999 -0.75738448 -0.25978693
0.1988 -0.96927345 0.093615562
0.1989 -1.3279297 0.99482667
0.1991 -1.3728163 1.0723726
0.20199999 -1.3742998 0.97094178
0.2024 -1.2603791 0.53222525
0.2025 -0.33781439 -0.80990362
0.2031 0.065372616 -1.176644
0.20809999 0.35605246 -1.6589161
0.2088 -1.1502261 0.71683478
0.21110001 -0.078974932 -1.1110268
0.2113 -0.73604262 0.60204798
0.21259999 0.22436386 -1.3832248
0.2142 -0.77576274 -0.74255478
0.2149 -1.7501099 1.9862641
0.21599999 -0.93080753 -0.73980927
0.2184 -0.59301889 -0.40587637
0.2186 -0.26077795 -0.85953462
0.21880001 -1.6058297 1.5903635
0.21880001 0.39437598 -1.6636945
0.2191 -1.2355994 0.75010562
0.2193 -0.94225347 0.10921556
0.22130001 -0.3395991 -0.074812323
0.22330001 -1.3880537 1.0067641
0.2238 -1.7348621 1.935254
0.22389999 -1.4128084 0.95044076
0.22510001 -1.3953283 1.1167641
0.22580001 -1.6734045 0.41200629
0.2279 -0.87043965 -0.69236958
0.22850001 -1.3650131 0.37285694
0.22960001 0.26222533 -1.5572027
0.23050001 -1.131443 0.17550142
0.23120001 -1.5902078 0.41350546
0.23210001 -1.101887 0.44890907
0.23370001 -0.21677423 0.14424872
0.23370001 -1.4756212 1.4938356
0.23390001 -0.18120259 -0.97236311
0.234 -1.5798628 1.7421875
0.2342 0.26381266 -1.4373523
0.23429999 -0.20927674 0.20146269
0.2378 -1.3199763 1.105651
0.23809999 -1.4194613 1.3553637
0.2396 0.16961843 -1.448203
0.2396 -1.6212487 1.6240698
0.24169999 -0.30514175 -0.68769431
0.2421 -0.84766716 -0.0014126599
0.2423 -0.62915182 0.62230766
0.24250001 -1.6616609 1.9084656
0.24349999 -0.34610727 0.52326012
0.24360001 -1.1215591 0.66618204
0.24430001 -0.64702082 -0.57654226
0.24680001 -1.3861852 0.32252812
0.24720001 -1.3561077 0.50663221
0.24770001 -0.63031137 -0.23988387
0.24920002 -0.61888725 -0.37647101
0.2502 -0.90120387 0.13291556
0.2509 -0.85111523 -0.58364046
0.25220001 -1.3772874 0.39671639
0.25229999 -1.5806339 1.5281228
0.25240001 -1.4723449 1.2817611
0.2534 -1.0770631 0.57051277
0.25420001 -1.1172731 0.14095849
0.2545 -1.4887769 0.4426218
0.2554 -0.75143433 -0.083492905
0.2559 -1.0318871 -0.68073452
0.25600001 -1.5454304 1.6641486
0.2563 -1.0693536 -0.63724065
0.25659999 0.05969128 -1.1626035
0.2568 -0.06972754 -1.1292435
0.2595 -0.2699903 -0.73217833
0.2597 -1.5319958 0.41027924
0.2599 0.34573638 -1.6012481
0.25999999 -0.92283499 -0.64721811
0.26089999 -1.4136183 1.1490436
0.26089999 -0.50271308 -0.6220907
0.2624 -0.34003574 -0.81245613
0.2631 -1.639981 1.8615154
0.26350001 -0.5423218 -0.17268631
0.2649 -0.22327989 -0.91848314
0.26530001 -1.010366 0.42218992
0.26550001 -1.1111002 0.33966678
0.26550001 -1.6089888 0.39723518
0.2676 -0.76460308 -0.56348395
0.2696 -1.0280483 0.38761678
0.27219999 -1.0581731 0.038594276
0.2726 -0.84613997 -0.52545786
0.2728 -1.0748074 0.39260569
0.27380002 -0.76462293 -0.28324953
0.2744 -0.64866352 0.61970288
0.27470002 -0.44930914 -0.61238897
0.27579999 -0.48235479 -0.43355218
0.27849999 0.2882306 -1.4836453
0.27959999 -1.657295 1.7163037
0.27990001 -0.90306926 0.49614656
0.28 -1.3080091 0.49052319
0.2802 -1.135672 0.51242626
0.28049999 -1.4784074 0.35346135
0.28049999 -1.5734456 0.2424725
0.28099999 -1.5521142 0.51332557
0.28189999 0.21034878 -1.3639501
0.28299999 -1.0157692 -0.58725119
0.28479999 -0.20140615 -0.82236958
0.28740001 -0.43534631 -0.88457334
0.28749999 -0.80249023 0.57453859
0.28760001 -0.97722453 -0.076212674
0.28799999 -0.87319732 -0.50759304
0.2888 -0.70411146 -0.53825843
0.28909999 -1.0758231 0.069164991
0.28929999 -0.90352577 -0.033662647
0.2895 -0.51051438 0.61182153
0.2895 -0.43010879 0.57995498
0.28960001 -1.4377587 0.42265597
0.28999999 -0.051418662 -1.1573554
0.29179999 -1.1167004 0.67256677
0.29190001 -0.52820092 -0.36614427
0.29230002 -1.1760432 0.80435121
0.2924 -0.25557011 0.032245159
0.29370001 -1.4692554 1.2676098
0.2938 -1.4611611 0.44979003
0.29390001 -0.61908126 -0.56133509
0.29440001 -1.2700306 0.5019424
0.29539999 -1.5561111 1.4666482
0.29570001 0.065375984 -1.1662498
0.29620001 -0.86549467 -0.24853447
0.2969 -1.6554446 0.46509925
0.29699999 -0.13221937 -0.91140461
0.29710001 -0.38343853 -0.8842802
0.29719999 -0.17111766 -0.99483073
0.2978 -1.3598666 1.0193429
0.2992 -1.4562006 1.4583981
0.29930001 -0.35984445 -0.82354641
0.29930001 -1.4361894 1.410138
0.29949999 -0.39167738 -0.11481014
0.30020002 -1.0379844 0.41282624
0.30039999 -0.11710382 -1.0691855
0.30059999 -1.437175 0.38904479
0.3026 -0.94027305 -0.16561452
0.30290002 -0.86583763 -0.59214044
0.303 -0.37682307 -0.71533859
0.30399999 -1.3995016 1.3213924
0.30599999 -1.6463742 1.6955888
0.3062 0.16431701 -1.2994207
0.3064 -1.2520127 0.97653461
0.308 -1.3602991 1.2250918
0.30849999 -1.2406693 0.54048705
0.3114 -0.90838671 -0.2094433
0.31170002 -1.2951195 0.6041975
0.31189999 -1.3812745 1.2782223
0.31240001 -0.26637936 -0.86623263
0.3127 -1.458915 0.49969965
0.31369999 -1.2764168 0.53220356
0.31380001 0.2865122 -1.496069
0.3143 -1.1436106 0.61557651
0.315 -0.68726331 -0.44724032
0.31560001 -1.1031878 0.37056214
0.31619999 -0.01132974 -1.2131914
0.3168 -0.30789542 -0.79632485
0.31760001 -0.1850332 -0.83912838
0.31760001 -0.45419914 -0.14651927
0.3177 -0.5992161 -0.47654244
0.3193 -1.0900586 0.54742146
0.3195 -0.76053429 -0.067731231
0.3197 -0.48834878 -0.56657028
0.31990001 -1.5774627 0.29223028
0.32010001 -0.66677105 -0.26093385
0.3202 -1.4173353 0.30408171
0.32080001 -1.1360099 0.72481155
0.3211 -0.26299429 -0.80469573
0.3213 -1.3956664 0.9559499
0.32179999 -0.84446025 -0.26756713
0.32229999 -1.5099499 0.25049508
0.3224 -1.0456607 -0.6348778
0.32550001 -1.3365598 0.48997435
0.3256 -1.065423 0.051151663
0.32609999 -0.50205427 -0.4218317
0.3265 -1.2318082 0.93773925
0.32699999 -0.72485578 -0.28072819
0.3272 -1.2595866 0.78325284
0.32910001 -1.0003843 0.34770113
0.3312 -0.93011767 -0.5326041
0.3312 -0.97418433 0.3023214
0.33140001 -0.3955211 -0.84495258
0.33309999 -1.3958352 0.36984202
0.3355 -1.6603258 1.7757531
0.336 -0.23365909 -0.91350591
0.33630002 -0.61223179 -0.23879871
0.3378 -1.5892241 1.5436014
0.34029999 -0.36300105 -0.88067901
0.3414 -1.608731 0.40338847
0.34380001 -1.0318344 0.40217412
0.34560001 -0.72393429 0.60707575
0.34560001 -0.48408929 0.60225201
0.347 -1.4085591 1.1214806
0.34819999 -0.6861378 0.61481023
0.34889999 -0.30912933 0.48641244
0.34940001 -1.183557 0.56976581
0.35260001 -0.95999068 -0.066262692
0.35319999 -0.020841181 -1.2025172
0.3538 -0.67588431 -0.21434936
0.35499999 -0.074196935 -0.97790241
0.3567 -0.89621419 -0.5503267
0.35909998 -0.54956365 -0.32074305
0.3592 -0.0052663982 -1.0678936
0.3603 -0.28856856 -0.83019984
0.36050001 -1.4685087 0.27811635
0.36089998 -1.2992549 0.8671602
0.36129999 -0.50730509 -0.37913713
0.3624 -0.13730168 -0.89540172
0.36309999 -1.2286069 0.7619946
0.3637 -0.88763577 -0.71638513
0.3653 -0.26238096 -0.87835801
0.36949998 -0.82818156 0.0098373592
0.3721 -1.2450507 0.97847569
0.37219998 -0.45671988 -0.90915322
0.3725 0.1165328 -1.3594561
0.37259999 -1.2813225 1.0573003
0.373 -1.4819403 1.5229807
0.3741 -1.1168289 0.35598922
0.37669998 -1.3012128 1.0199513
0.3777 -0.44614938 -0.61726201
0.3784 -0.4892717 -0.61837184
0.38 -0.93272716 0.11471558
0.38169998 -0.75780976 -0.2840502
0.382 -0.65555185 -0.18436608
0.38240001 -1.3460696 1.0044456
0.3827 0.16969147 -1.3225294
0.38299999 -1.3156033 0.90067625
0.38409999 -0.23937164 0.071388602
0.38429999 -1.5072155 1.3439587
0.3845 -0.95608431 0.2709713
0.38609999 -1.0565674 0.5694133
0.3883 -1.1445907 0.76327407
0.38859999 -1.103273 0.11670977
0.3888 -0.35167333 -0.59169912
0.38889998 -1.5148969 0.93526316
0.39210001 -1.5365236 1.6277217
0.3924 -1.3670592 1.2586011
0.39289999 -1.5988364 1.5992509
0.39829999 -1.1245987 0.72204673
0.3994 -1.3943298 0.95383489
0.40019998 -0.027293831 -1.1935409
0.40109998 0.012455702 -1.2399892
0.40189999 -0.74791729 -0.2465845
0.40289998 -1.4891081 1.2997956
0.40469998 -1.0640483 0.36637038
0.40559998 -1.044969 0.41872409
0.40959999 -0.73529983 0.60236138
0.4102 -0.56510967 0.61898339
0.41099998 -1.3923285 1.3205686
0.412 -0.3060731 0.48251891
0.41330001 -1.3100138 0.882195
0.4136 -0.21698844 -0.94418025
0.41420001 0.10631326 -1.2287552
0.41429999 -1.3794041 1.0141828
0.42039999 -1.3877549 1.0622468
0.4206 -1.6000202 1.6645008
0.4208 -0.50422591 -0.37147036
0.42089999 -0.27619416 -0.86543298
0.42139998 -0.46862257 -0.1525372
0.42159998 -1.4297755 1.4070284
0.42179999 -0.89804947 -0.21894804
0.42210001 -1.3111329 0.98593378
0.4226 -0.49930286 -0.5661974
0.42379999 -0.78953433 -0.017501771
0.42480001 -1.1221602 0.32762325
0.42499998 -0.25386968 -0.80370009
0.426 -1.2294357 0.9564296
0.42809999 -1.3638716 0.96887958
0.4289 -0.38506013 -0.72067153
0.43079999 -0.99512309 -0.070611507
0.43109998 -0.53412485 -0.52048385
0.43199998 -0.99455553 0.44540539
0.43309999 -0.64901757 -0.25068387
0.43329999 -0.73818433 -0.1064426
0.4337 -1.2366381 0.76890481
0.43700001 -1.0783731 0.073581725
0.43719998 -1.5540731 1.4797182
0.4411 -1.1990292 0.89396405
0.44229999 -0.11601725 -0.91486752
0.44279999 -1.1518257 0.27100518
0.44459999 -0.97695762 0.39032501
0.44769999 -0.85961831 -0.0083126724
0.4492 -0.46543279 -0.60426199
0.4506 -1.4417059 1.4288925
0.45100001 -0.20823321 0.20945525
0.45109999 -0.46720484 -0.41799268
0.45120001 -1.5602441 1.5146068
0.45139998 -0.73704529 0.60158455
0.45299998 -0.40555003 -0.69578195
0.4535 -1.2959223 0.84298801
0.4553 -0.94407308 -0.15903273
0.45699999 -0.83873791 -0.2016786
0.45699999 -0.78250808 -0.23607144
0.45699999 -0.96987641 0.14545992
0.45699999 -0.80029851 -0.079257578
0.45699999 -0.99725074 0.32087368
0.45699999 -0.83815432 -0.26588938
0.45699999 -0.88381928 -0.077595294
0.45739999 -1.1888752 0.59417719
0.4585 -1.0073665 0.48119476
0.46070001 -1.3932066 0.95228934
0.46109998 -0.3572838 0.53181845
0.46419999 -1.305964 1.0423806
0.4659 -0.27285203 -0.76362169
0.46629998 -0.22632933 -0.93560135
0.46700001 -1.5803564 0.83904231
0.4673 -1.1436009 0.23175962
0.4677 -1.5118892 0.9478538
0.4693 -1.5244799 1.5748615
0.4698 0.037126154 -1.2427195
0.4709 -1.1070644 0.36647654
0.47139999 -0.83526164 0.55250037
0.47329998 -1.1317599 0.17705047
0.47670001 -1.4282663 1.3968147
0.47839999 -1.394624 1.0087442
0.47889999 -0.97461146 0.39826134
0.48089999 -0.6976527 -0.3062453
0.4824 -0.35161233 -0.87560475
0.4844 -1.0778987 0.64116001
0.48460001 -0.2426054 0.37978962
0.4887 -0.26928151 0.43459398
0.4892 -0.40665454 -0.84606886
0.49259999 -1.2593129 1.0309787
0.49309999 -0.49845392 -0.36686775
0.49610001 -1.4836519 1.2917452
0.49770001 -1.0101035 0.49693516
0.49789998 -0.4922663 -0.8483851
0.4984 -0.81457728 -0.27652594
0.49989998 -0.93922305 -0.16743317
0.50010002 -1.3529747 0.97020566
0.50029999 -1.0456231 0.016857058
0.50190002 -0.43938029 -0.44938633
0.50220001 -0.52213871 -0.98664451
0.50870001 -1.5241313 1.5160577
0.5115 -0.42603898 -0.67389405
0.51270002 -1.1071813 0.71027887
0.51280004 -1.1466799 0.79509246
0.51350003 -1.1009407 0.37567005
0.514 -0.24677184 0.053606123
0.51560003 -0.52851534 -0.32059976
0.51660001 -0.15387058 -0.85970354
0.5187 -0.33255714 -0.86240935
0.5237 -0.63531208 -0.39542243
0.52539998 -1.212842 0.93748879
0.5262 -1.4221051 1.1329432
0.52630001 -1.1422329 0.22539026
0.52789998 -1.0876731 0.089689791
0.528 -0.1267761 -1.0558325
0.52850002 -0.35497442 -0.76958144
0.53119999 -1.4924433 1.4777725
0.53140002 -0.44734234 -0.64739561
0.5316 -0.22013423 0.11886841
0.53210002 -0.33224183 -0.59895551
0.53560001 -0.56152892 -0.87601852
0.53579998 -0.57414728 -0.91136301
0.5359 -1.0595496 0.61237854
0.5381 -1.1128731 0.13333747
0.53839999 -0.20838487 -0.95988214
0.53839999 -0.55593044 -0.27811548
0.53869998 -0.075028777 -1.1058615
0.53979999 -1.2025868 0.61212611
0.54030001 -1.5175931 0.81373322
0.54150003 -0.54608607 -0.51676643
0.54390001 -0.60233879 -0.22373387
0.54510003 -1.4762359 0.93830049
0.54800004 -0.85993522 0.53363627
0.55159998 -0.37322155 -0.74697649
0.55220002 -1.1468952 0.80166543
0.55320001 -0.46283722 -0.84455776
0.55720001 -0.25807345 0.026181042
0.56160003 -1.3147135 1.149335
0.56190002 -1.0809231 0.07799843
0.56220001 -1.3930702 1.306053
0.56270003 -0.55408514 -0.19391164
0.56290001 -0.67781872 -0.34259871
0.56300002 -1.372129 1.2661819
0.56300002 -0.7266646 -0.28119513
0.56340003 -1.4763508 1.4208992
0.56450003 -0.66733235 0.61723828
0.56450003 -0.95452303 -0.14093277
0.56510001 -0.54862809 0.61683655
0.56569999 -1.5639322 0.80799478
0.5661 -0.47676867 -1.0028276
0.56919998 -0.4599967 -0.9030776
0.56940001 -0.54294312 -0.29221013
0.57099998 -0.36056045 -0.55410624
0.57099998 -1.2591097 0.74022686
0.5715 -1.6045346 0.94852042
0.57170004 -0.43482888 -0.98126948
0.57179999 -0.29252899 -0.021540165
0.57230002 -0.22955415 -0.82141578
0.5729 -0.10115746 -0.94000542
0.57300001 -1.2324326 0.98322046
0.57380003 -0.49249279 -0.16239271
0.57590002 -0.21402207 0.27828184
0.57620001 -0.1977275 -0.79334116
0.57850003 -0.4473815 0.58707219
0.57870001 -0.79393792 -0.27927449
0.57870001 -1.135392 0.44954127
0.58030003 -0.34893161 -0.082047969
0.58170003 -1.0259731 -0.017177761
0.58170003 -0.32131433 -0.61008251
0.58200002 -0.42641073 -0.85505021
0.5826 -1.428478 1.3607813
0.58579999 -0.30760342 -0.83403051
0.59009999 -0.046377093 -1.0360878
0.59240001 -1.384012 1.0155638
0.59450001 -0.50307971 -0.82945561
0.59490001 -0.96116102 0.39436448
0.59570003 -1.2282093 0.66430557
0.59750003 -0.65793765 -0.25583383
0.59780002 -0.39479151 -0.50181627
0.59780002 -0.34623581 -0.87411726
0.60190004 -0.5038808 -1.0116681
0.6027 -1.2871504 1.0401945
0.60300004 -1.5328052 0.98208141
0.60330003 -0.44816354 -0.42397323
0.60440004 -1.4581146 1.2977134
0.6049 -0.15775526 -0.85917509
0.60660005 -1.261349 0.7417053
0.60840005 -0.2305142 -0.80915296
0.61000001 -0.21882091 0.3141937
0.61160004 -0.58954263 -0.93029749
0.61230004 -0.61686826 -0.42876801
0.61330003 -1.4197721 1.3277024
0.61340004 -0.52636802 -0.17051908
0.61370003 -1.0946455 0.37976643
0.61400002 -1.0579571 0.62242013
0.61660004 -0.87230861 0.52406758
0.61770004 -0.40259981 -0.71209204
0.61810005 -0.55042452 -0.27505204
0.61950004 -0.62754011 -0.23828384
0.62330002 -1.5024364 0.96428108
0.62370002 -0.71654272 0.61007309
0.62830001 -0.23694152 0.077179492
0.62840003 -1.1874725 0.89474738
0.6293 -1.2124481 0.62340671
0.6293 -1.376265 1.2507457
0.63230002 -1.1218722 0.3437244
0.63310003 -1.4368572 1.2480944
0.63430005 -0.4139744 -0.86519063
0.63590002 -0.15954429 -0.98387635
0.63820004 -0.22425139 -0.7560004
0.63940001 -0.37096441 -0.75248611
0.63990003 -0.88956833 -0.22663769
0.64280003 -0.43622011 -0.93345976
0.64350003 -1.3043871 0.8414495
0.6469 -1.482724 0.80753779
0.6469 -1.0392532 0.4220241
0.65000004 -0.77365828 -0.2819998
0.65270001 -0.11628178 -0.9418093
0.65369999 -0.7815913 0.58314049
0.65369999 -0.44751808 0.58710879
0.6559 -1.144978 0.28754488
0.65650004 -0.30305347 0.47848877
0.65650004 -0.62364304 -0.23603389
0.65710002 -0.85625374 -0.25694016
0.6591 -1.2115145 0.94298947
0.66030002 -1.3209953 1.0726157
0.6609 -1.291544 0.80960453
0.66220003 -1.1189682 0.39909458
0.6627 -1.4888783 0.89439762
0.66440004 -1.2431834 0.69284165
0.6649 -1.1179731 0.14217094
0.66870004 -0.38983041 0.55679083
0.67140001 -0.2845425 -0.8457731
0.67360002 -0.20751315 0.22880808
0.67510003 -1.2441156 1.0024561
0.67560005 -1.1077795 0.36271504
0.67630005 -1.645901 0.915169
0.6771 -0.14919853 -0.89499581
0.6778 -0.69684803 0.61336094
0.68080002 -1.2597265 0.73109508
0.68270004 -0.48893368 -0.60235727
0.68310004 -0.30514354 -0.76529121
0.6832 -0.97422308 -0.10681137
0.68350005 -1.4766316 0.97698569
0.68370003 -1.6435425 0.85348403
0.6839 -0.69096714 -0.27282503
0.68520004 -0.39835072 -0.87245166
0.68630004 -0.17452493 -0.94552922
0.69130003 -0.4357976 -0.82779169
0.69320005 -0.3643508 -0.88954115
0.69350004 -1.025373 0.56398302
0.69420004 -0.39408392 -0.91144192
0.69480002 -0.28007334 0.44868603
0.69500005 -0.23968664 -0.82726586
0.69690001 -0.79294509 -0.27939406
0.6997 -1.1386099 0.30311492
0.70030004 -0.57365859 -1.0016093
0.70039999 -0.46088505 -0.39713886
0.70070004 -0.85123515 -0.26143274
0.70070004 -1.5353868 1.001953
0.7022 -0.28557518 -0.74198449
0.704 -1.2683003 1.0381452
0.70420003 -0.24116358 -0.74070764
0.70450002 -1.3050127 1.098933
0.70820004 -0.34212038 -0.076845318
0.7101 -0.70831728 -0.31517372
0.7123 -0.33333933 -0.78145456
0.71330005 -1.4687047 0.87925583
0.71430004 -0.17327192 -0.88429964
0.7148 -0.26869929 -0.69621456
0.71490002 -0.21249595 -0.89736152
0.71500003 -0.6497795 0.61963588
0.72280002 -0.9696247 0.4622241
0.7234 -0.4811686 -0.61080682
0.72790003 -1.3486757 0.96575952
0.72870004 -0.90757692 -0.21024594
0.7317 -0.99892473 0.51297319
0.73340005 -0.47150207 -0.80394971
0.73470002 -1.1094863 0.3560715
0.7374 -0.3784346 -0.52054727
0.7378 -0.20764336 -0.86176634
0.74040002 -1.5280132 1.0089813
0.74370003 -0.92992306 -0.18354127
0.7439 -0.41896337 -0.13194939
0.74550003 -0.24984035 0.39732093
0.74610001 -0.69676143 0.61341095
0.74810004 -1.347254 1.0308971
0.75220001 -0.45009032 0.58816409
0.75920004 -0.55704731 -0.51478112
0.7597 -0.34913823 -0.57049012
0.7608 -0.3522532 -0.88209474
0.76200002 -1.2708672 0.77339131
0.76280004 -0.44794333 -0.64335465
0.76540005 -0.39132112 -0.85222721
0.76630002 -0.26154587 0.42439544
0.76840001 -0.67733657 -0.2670339
0.77240002 -1.3229241 1.0517566
0.7737 -0.55043912 -0.26062676
0.77400005 -1.1773274 0.86157572
0.77690005 -0.37751326 -0.71354306
0.778 -0.24779099 -0.77882862
0.7784 -0.46216029 -1.0439302
0.7791 -0.36135501 -0.091530025
0.77960002 -0.21077251 0.25325346
0.78030002 -1.0916731 0.096617997
0.78490001 -0.32280445 -0.76290143
0.78839999 -0.9962427 0.51232767
0.78910005 -0.52098793 -0.16983768
0.7899 -0.43108195 -0.89515948
0.7942 -1.6348925 0.79670167
0.7949 -1.0377731 0.0032604337
0.79630005 -0.51660788 0.61257583
0.79760003 -0.6476841 0.61980641
0.80200005 -0.6972003 -0.33542892
0.80300003 -1.2976954 1.0016593
0.80590004 -1.0773458 0.67300248
0.80910003 -1.5567465 0.75694883
0.80920005 -1.1830211 0.86163712
0.8107 -1.4101927 0.91731012
0.8107 -0.99811703 0.44577408
0.81130004 -0.37864748 -0.69837856
0.81150001 -0.3640148 -0.93992305
0.81650001 -1.4904692 0.97315323
0.81670004 -0.51258838 -0.78598619
0.81800002 -0.35473776 -0.81159139
0.81830001 -0.67023194 -0.90713942
0.81840003 -1.2590947 0.97360063
0.81900001 -1.1490898 0.45606661
0.81920004 -0.72738206 -0.29835251
0.82060003 -0.46051371 -0.74518216
0.82120001 -0.40714321 -0.4856225
0.82230002 -0.43097261 -0.44614872
0.82240003 -0.94727308 -0.15349016
0.82250005 -0.46285319 -0.15013
0.8233 -1.54971 1.0263615
0.82410002 -1.6772015 0.90818286
0.8251 -1.43747 0.80075604
0.82550001 -1.4786358 0.93125701
0.82730001 -0.26582545 -0.76499212
0.82870001 -0.60631114 -0.44865355
0.82880002 -1.3813176 0.94529712
0.8319 -0.63601959 -0.92179704
0.83270001 -1.7189801 0.90334547
0.83400005 -1.24652 0.7402209
0.83600003 -0.47916475 -0.78227746
0.83760005 -0.34295136 -1.018406
0.83770001 -1.2725884 0.84237248
0.83830005 -0.61498272 -0.23103389
0.83840001 -0.43092763 -1.0440267
0.83880001 -1.5263681 0.75093186
0.84260005 -0.2927388 -0.021776766
0.84260005 -0.46998525 0.59642309
0.84440005 -0.83218831 -0.27422282
0.84920001 -0.50140661 -0.16615352
0.84930003 -0.26913512 0.0089404285
0.85080004 -1.4353714 0.73892105
0.85100001 -0.20786098 0.21221051
0.85260004 -0.5509463 -0.25814828
0.8545 -1.2070351 0.62503088
0.85480005 -1.2248695 0.90872097
0.85580003 -1.671375 0.95069122
0.85730004 -0.60046923 -0.76617205
0.85750002 -0.69171453 -0.26933053
0.86090004 -0.2442724 0.38367695
0.86090004 -0.58142447 -0.80355847
0.86360002 -0.63500816 -0.87594879
0.86700004 -0.90169841 -0.2156277
0.86930001 -0.21603572 0.29316959
0.87150002 -0.66939157 -0.99279487
0.87190002 -0.37011388 -0.7763592
0.87370002 -1.4433703 0.78037548
0.87540001 -1.6659229 0.80984771
0.87590003 -1.1139522 0.35060644
0.87640005 -0.63164347 -0.97977674
0.87720001 -0.31734288 -0.85016131
0.87810004 -0.61080062 -1.0142776
0.87880003 -1.5996704 0.70849526
0.88120002 -1.2523582 0.85913295
0.88170004 -0.86142248 -0.25218782
0.88510001 -0.68895578 -0.34290883
0.88510001 -0.67422491 0.61637652
0.88680005 -0.48940682 -1.0699377
0.8876 -0.21192802 0.26205486
0.88860005 -1.6996553 1.000874
0.88940001 -0.56865036 -0.20428386
0.89000005 -0.36155078 -0.62419093
0.89270002 -1.0924838 0.68262225
0.89650005 -0.7421881 -0.28530785
0.8973 -0.97852308 -0.099363565
0.90190005 -0.88944155 0.5109427
0.90280002 -1.6797318 0.95556569
0.90610003 -1.0752537 0.39257887
0.90800005 -1.4820752 0.74821424
0.90870005 -0.56707734 -0.23720846
0.9091 -0.48000252 -0.38242647
0.9095 -1.6054788 1.0769554
0.91390002 -1.3521626 0.95219934
0.91480005 -0.42459548 -0.86439443
0.91610003 -0.83693033 0.5511905
0.91790003 -1.7397788 0.88336992
0.91930002 -0.34711158 -0.87520027
0.92140001 -0.30429426 -0.036762148
0.92260003 -1.0083408 0.52728224
0.92270005 -0.96109957 0.44185814
0.92270005 -0.46938884 0.59619009
0.92520005 -1.1876991 0.6141398
0.92640001 -0.5023936 -1.1200441
0.93180001 -0.32489693 -0.81387722
0.93279999 -0.23299012 0.086735457
0.93380004 -1.1341424 0.31377712
0.9357 -1.0495731 0.023698658
0.93670005 -1.3423288 0.86076653
0.93700004 -0.71285826 -0.27310857
0.93890005 -1.4136231 0.92445171
0.94100004 -0.59735185 -1.0957713
0.9454 -0.63787496 -0.83938336
0.94660002 -0.98452038 0.4536241
0.94850004 -0.65710592 -0.89667439
0.95030004 -1.3922467 0.95122695
0.95070004 -1.5853493 0.73189026
0.95090002 -1.7387979 0.94167125
0.95110005 -0.61109769 -0.752563
0.95180005 -1.6648076 0.72931612
0.95320004 -1.6324372 1.0252489
0.95480001 -0.5523262 0.6172418
0.95490003 -1.3522406 0.95573401
0.95630002 -1.5608084 1.0925845
0.95640004 -1.4057839 0.79907387
0.95850003 -1.0324044 0.42436165
0.95950001 -0.64835614 -1.0566293
0.9598 -1.3942485 1.0330942
0.96110004 -1.3121834 0.96835315
0.96140003 -1.4322877 0.89877999
0.9623 -1.3774323 0.88056767
0.96270001 -0.95757306 -0.13565001
0.96380001 -1.0545173 0.59646231
0.9648 -1.1155814 0.69422841
0.96490002 -1.6526928 0.76633281
0.9666 -0.93892306 -0.16795275
0.9698 -1.3807127 0.8456493
0.96990001 -0.33151805 -0.93420923
0.97240001 -0.61797392 -0.80445313
0.97240001 -0.33254224 -1.0440352
0.97530001 -0.6413514 -0.77176201
0.9756 -0.64708453 -0.36723182
0.9774 -0.70010173 -0.88720345
0.98100001 -0.61744332 -1.087972
0.98110002 -0.47645605 -1.1259691
0.98370004 -0.27037373 -0.79371417
0.98500001 -0.4081102 -1.0651476
0.98710001 -1.6267109 1.0791308
0.98810005 -0.38279206 -0.81219995
0.98880005 -1.0067922 0.50819993
0.99040002 -1.1393702 0.21203193
0.99400002 -1.4845479 0.68789697
0.99520004 -0.2140525 0.16533457
0.99550003 -1.7108436 0.8588528
0.99950004 -0.78943723 -0.2788699
1.0016 -1.1580174 0.66152966
1.0064 -0.27355909 -0.84439707
1.0066 -0.52304912 -0.33926758
1.0091 -1.3477561 0.8093667
1.0093 -0.33774316 0.51677305
1.0137 -0.22704534 0.34223881
1.0143 -0.68719316 -0.31256172
1.0158 -0.478347 -1.130294
1.0159 -0.28732681 -0.90015054
1.0161999 -0.21464983 0.28276914
1.0175 -1.1059231 0.12129971
1.0194 -1.7469513 0.94539309
1.0197001 -0.34275299 -1.0657498
1.0237 -1.3591769 0.9981482
1.0286 -0.65781385 -1.0580484
1.0304999 -0.60010839 0.62360293
1.0329 -1.715713 1.0108868
1.0329 -0.68916237 -0.83135092
1.0331 -0.58892989 -0.39935872
1.0345 -1.139497 0.21265154
1.0351 -0.89890921 -0.21805879
1.0365 -0.22074309 0.11632296
1.0385 -1.4167325 0.91803753
1.0398999 -0.30055535 -0.84023798
1.0401 -0.42779064 -0.13566014
1.0479 -0.7785334 0.58444417
1.0495 -0.61665189 -0.36594281
1.0502 -1.0161319 0.50257677
1.0517 -0.46497738 0.59434915
1.0526 -1.1000322 0.58669645
1.0534999 -0.37424803 -0.10139868
1.0543 -0.40937996 -0.82454836
1.0556999 -0.58119166 -0.2513617
1.0559 -0.85564399 -0.25739643
1.0581 -1.1162231 0.13913983
1.0667 -0.68815988 -1.0174872
1.0676 -0.68453389 -0.29416779
1.0677 -0.32221428 -0.76452374
1.0691 -0.61707878 -0.16700342
1.0694 -0.70868301 -0.95174038
1.0705 -0.48929828 -0.16112575
1.0721999 -0.26046696 0.020526767
1.0734 -1.6189187 1.0896341
1.0792 -1.101223 0.11315906
1.0793 -0.99292308 -0.074422032
1.0800999 -0.58252764 -0.35524783
1.0832 -0.21801278 0.30819395
1.0855 -1.7557912 0.86650407
1.086 -0.53751588 -0.70881045
1.0872999 -1.3653994 0.94432604
1.0893 -1.3665848 1.0461792
1.0908999 -1.33109 0.93850029
1.0929999 -0.39423794 -0.81557512
1.0939 -0.23925804 0.37179181
1.0958 -0.59096605 -1.114832
1.0992 -0.30184245 -0.8576088
1.1032001 -1.6765201 1.0588027
1.1033 -0.58208472 -0.28201506
1.1036 -0.73636818 -0.26358804
1.1042 -1.6746223 0.71891546
1.1106 -1.1288166 0.30715248
1.1145 -0.49636745 -1.1390815
1.117 -0.47948977 -0.70371461
1.1172 -1.5407481 1.1084387
1.1182001 -0.69046527 -0.82009423
1.1202 -1.025673 -0.017697364
1.1233001 -0.36586654 -0.90011585
1.1244 -0.83380282 0.55357355
1.1286 -1.6032374 1.1000733
1.1332 -0.77267742 0.58690131
1.1339 -0.9013176 0.49831259
1.1348001 -0.31399041 -1.0403678
1.1351 -1.4165962 0.92920136
1.1364 -1.071125 0.37902772
1.1389 -0.61656219 -0.23009822
1.1393 -0.20747297 0.22813845
1.14 -1.0432525 0.43715104
1.1404001 -0.36978418 -1.0983301
1.1424 -1.6463907 0.69641697
1.1436 -1.3722572 0.75180411
1.1441001 -1.6897066 0.72764242
1.1452 -1.4080729 0.71703863
1.1481 -1.3417988 0.95344853
1.1511 -0.26140925 0.42435884
1.1542001 -0.87298292 -0.24096438
1.1545 -0.37820798 -0.86393988
1.1562001 -0.29761425 0.47146773
1.1567 -1.7234421 1.0112741
1.16 -1.0559731 0.034783781
1.1609 -1.4765272 1.0984049
1.1633 -0.70418102 -0.85133803
1.1633 -0.62847924 -0.1666573
1.1651 -0.56155503 -0.71137333
1.1665 -0.40245175 -0.82054842
1.1670001 -1.3784645 1.0343553
1.1695 -0.66223496 -0.24619064
1.1762 -0.29839945 -0.83137226
1.1768 -1.0934978 0.32257858
1.1785001 -1.1291008 0.16484475
1.1811 -0.3458041 -0.079664975
1.1846 -0.56991667 -1.0452906
1.1848 -1.6365211 0.80592263
1.1856 -0.70985758 -0.96650589
1.1877 -0.45648789 -1.133955
1.1893001 -0.38430986 -0.73317099
1.1901001 -1.5317075 0.76898015
1.1901001 -0.29926497 -1.0102732
1.1905 -0.56196767 -0.90005863
1.1917 -1.6315184 0.98605752
1.1928 -1.0206044 0.40392345
1.1930001 -0.434596 -1.0530729
1.1946 -0.76215935 -0.25711659
1.1948 -1.4684052 0.78693712
1.1948 -1.3328099 0.9514792
1.1953 -1.6868103 0.87942576
1.1956 -1.5168324 0.89361572
1.1972001 -1.6030161 1.0336902
1.1992 -0.38899368 -0.96265841
1.2002001 -0.38769388 -1.1097097
1.201 -0.21123329 0.25645155
1.2047 -0.39006233 -0.80900753
1.2059001 -0.99349004 -0.072439969
1.2077 -1.0577952 0.37713975
1.2115 -0.22222775 0.1126945
1.2119 -0.42173064 -1.1233563
1.2122 -0.39793342 -1.0413743
1.2142 -0.96434313 0.39587593
1.2146 -1.4814279 1.0986931
1.2163 -1.4330814 0.77615452
1.2173001 -1.3285444 0.85429126
1.2214 -0.32651442 -0.94367564
1.2215 -1.7329714 0.78637934
1.2260001 -0.64111686 -0.95256829
1.2264 -1.3252001 0.89709854
1.2265 -1.4853168 1.0500289
1.2272 -1.7553785 0.85738933
1.2275001 -0.45158333 -0.87604988
1.2278 -0.63882411 -0.75713933
1.2284 -0.85230798 0.53942549
1.2291 -0.56524622 0.61901999
1.2292 -1.6440623 0.73898417
1.2323 -0.57855594 -0.72072685
1.2337 -1.7433136 0.96689236
1.2338001 -0.60203803 -1.1102549
1.2338001 -1.3575294 1.0236945
1.2341 -0.5116905 -0.77034128
1.2363 -0.53302097 -0.96059573
1.2374001 -0.8665691 -0.23287353
1.2395 -0.62295753 -1.0028212
1.2403001 -1.5719507 1.0460833
1.2418001 -1.5158246 0.74246997
1.2439001 -0.54400736 -1.0671668
1.2441 -0.32596695 -0.87442398
1.2445 -0.70966655 -0.88683677
1.2462 -0.67990541 -1.0355846
1.248 -0.62063718 -0.84144008
1.2484 -1.6551476 1.0139844
1.2492 -0.402031 -1.0626771
1.2497001 -0.49899712 -0.85492682
1.2497001 -0.35058063 -0.82039177
1.2521 -0.93908751 0.45953202
1.2527 -0.30303502 -0.82654321
1.2534 -1.5463865 0.72840464
1.2535 -1.4231255 1.0111105
1.2535 -0.88648725 0.51322573
1.2537 -0.65951031 -0.97230983
1.2546 -0.23222309 0.35460693
1.2556 -0.5142222 -1.1349564
1.2587 -1.5949757 0.89376384
1.2590001 -0.97842818 0.3946721
1.2591001 -0.41150284 -1.0302714
1.2597001 -1.496501 0.84300029
1.2598001 -1.4475276 0.83097607
1.2605001 -0.52105582 -0.74792004
1.2621 -0.58669305 -0.840433
1.2622 -0.59972394 -0.9502629
1.2625 -1.614501 0.93318236
1.2679 -0.76780307 -0.24594125
1.2694 -0.45709169 -1.0067092
1.2711 -1.553674 0.82742727
1.2722 -0.25072324 0.044050187
1.2724 -0.53059775 -1.006193
1.2738 -0.40924424 0.57121658
1.2743 -1.6323028 1.0842162
1.2754 -0.62787986 -0.21769544
1.2761 -0.69715732 -0.84370327
1.2786 -1.3287885 0.86731398
1.2788 -1.662677 1.0670259
1.2797 -1.5725064 0.93964565
1.2801 -0.2830708 -0.93672216
1.2804 -0.5530557 -0.93209469
1.2811 -1.6643798 0.797575
