# .PCD v0.7 - Point Cloud Data file format
VERSION 0.7
FIELDS x y z
SIZE 4 4 4
TYPE F F F
COUNT 1 1 1
WIDTH 779
HEIGHT 1
VIEWPOINT 0 0 0 1 0 0 0
POINTS 779
DATA ascii
-1.3912178 -0.39309999 -1.5508549
-1.4498509 -0.3892 -1.5372102
-1.4723623 -0.32269999 -1.5704012
-1.2775911 -0.36839998 -1.5932477
-1.4126666 -0.40129998 -1.4178052
-1.2518603 -0.39729998 -1.5250804
-1.4820756 -0.37009999 -1.6598248
-1.4818088 -0.3924 -1.4299629
-1.3632054 -0.398 -1.3909359
-1.5362328 -0.33589998 -1.485028
-1.3050054 -0.40309998 -1.4043305
-1.2614509 -0.40619999 -1.439292
-1.2270762 -0.34559998 -1.5107532
-1.4569498 -0.32359999 -1.7025061
-1.4368296 -0.43419999 -1.3650565
-1.5881569 -0.37449998 -1.5357633
-1.3489623 -0.35599998 -1.3566663
-1.5160545 -0.38959998 -1.3824782
-1.4045203 -0.44419998 -1.3320954
-1.5472305 -0.35709998 -1.7152767
-1.5696576 -0.35209998 -1.4119215
-1.1695224 -0.40459999 -1.482667
-1.3477277 -0.41399997 -1.3189275
-1.3415083 -0.3624 -1.3205552
-1.1634551 -0.42309999 -1.4181581
-1.469133 -0.39809999 -1.2964077
-1.3283457 -0.41769999 -1.2893569
-1.5481904 -0.3696 -1.3319392
-1.1478317 -0.3538 -1.4220977
-1.652099 -0.34689999 -1.4553142
-1.6694576 -0.36479998 -1.5123804
-1.5319263 -0.44659999 -1.311769
-1.2382497 -0.4271 -1.3125062
-1.4575354 -0.38009998 -1.2629201
-1.6788576 -0.31719998 -1.6010613
-1.6862736 -0.32979998 -1.5395064
-1.6607866 -0.36109999 -1.4007616
-1.1984074 -0.3633 -1.3092973
-1.6509846 -0.35499999 -1.7203841
-1.6617656 -0.30289999 -1.6902571
-1.7071356 -0.35859999 -1.5504403
-1.1368825 -0.43269998 -1.3643334
-1.6137093 -0.30139998 -1.7644212
-1.2386974 -0.4303 -1.2542818
-1.1556851 -0.36359999 -1.3111
-1.0643162 -0.38049999 -1.4578445
-1.3625637 -0.41529998 -1.2078245
-1.4781048 -0.39409998 -1.2137475
-1.0619327 -0.41129997 -1.4323161
-1.1093652 -0.43789998 -1.3350718
-1.4212933 -0.39459997 -1.193547
-1.3084309 -0.38609999 -1.1986637
-1.6184747 -0.4197 -1.2384753
-1.3815485 -0.3994 -1.162107
-1.7686343 -0.34729999 -1.6427591
-1.7767959 -0.34649998 -1.4950955
-1.7692116 -0.3152 -1.6247594
-1.1627538 -0.38029999 -1.2049434
-0.98952258 -0.39139998 -1.4104981
-1.811057 -0.34239998 -1.6098373
-1.2921442 -0.42699999 -1.1288543
-1.2515405 -0.3985 -1.1301265
-1.190223 -0.44059998 -1.1565216
-1.7305127 -0.32929999 -1.8421309
-1.7967718 -0.33739999 -1.7666948
-1.822224 -0.33759999 -1.7137794
-0.97581309 -0.44169998 -1.3261528
-1.2845507 -0.42859998 -1.0837018
-1.7507001 -0.28659999 -1.8686965
-1.8811122 -0.33159998 -1.6125767
-1.1775272 -0.40459999 -1.0853319
-0.98502588 -0.37719998 -1.2363098
-1.2654942 -0.42089999 -1.040895
-1.0312431 -0.45849997 -1.1725605
-1.8905834 -0.32799998 -1.7367811
-0.90811449 -0.38239998 -1.3066952
-0.88249379 -0.3901 -1.3329189
-0.92032945 -0.3804 -1.2392523
-1.8099158 -0.2807 -1.916261
-1.892048 -0.28569999 -1.7955182
-1.942957 -0.3019 -1.7240951
-1.1575289 -0.42219999 -1.0036938
-1.8432755 -0.30789998 -1.9316416
-0.94225168 -0.4684 -1.1596227
-0.8968029 -0.46740001 -1.2093029
-1.0177716 -0.40189999 -1.0720272
-0.90573555 -0.38749999 -1.1707749
-1.1691285 -0.43109998 -0.97078472
-0.97686756 -0.46950001 -1.0921791
-1.9731814 -0.3152 -1.7902451
-0.9348222 -0.39569998 -1.1067543
-1.0427595 -0.46499997 -1.0151074
-1.8710567 -0.28509998 -1.97276
-2.0105433 -0.31039998 -1.7573581
-0.83386999 -0.38999999 -1.1849
-1.0931784 -0.45929998 -0.95343548
-0.98319679 -0.47259998 -1.0177417
-2.031961 -0.28309998 -1.8290548
-1.929979 -0.29119998 -1.9990165
-1.0311377 -0.46869999 -0.93717772
-1.0559653 -0.44029999 -0.89998037
-2.0582266 -0.30179998 -1.850148
-2.003516 -0.3028 -1.9507864
-0.85973144 -0.4084 -1.0260932
-0.77337557 -0.3976 -1.1287205
-0.73000813 -0.46899998 -1.1862061
-2.0666475 -0.27419999 -1.8777335
-0.71847469 -0.40449998 -1.1866295
-2.1017532 -0.29479998 -1.8841383
-0.91951931 -0.50749999 -0.91524905
-1.076685 -0.54089999 -0.82046801
-2.0817981 -0.2579 -1.9681747
-1.1200887 -0.51370001 -0.78224522
-1.0885693 -0.47209996 -0.78185219
-0.8460992 -0.42609999 -0.92288166
-0.98026299 -0.51419997 -0.82406014
-1.163487 -0.52169997 -0.7484135
-0.99905646 -0.4752 -0.80501145
-2.0828955 -0.23870002 -2.0140758
-0.7847628 -0.42189997 -0.94224399
-0.82010233 -0.49809998 -0.89805382
-0.63474488 -0.41249999 -1.1046052
-0.98086989 -0.47829998 -0.77371126
-0.73093045 -0.41979998 -0.95600349
-0.70006889 -0.41669998 -0.98074967
-0.92308581 -0.45880002 -0.7858265
-2.1817102 -0.26169997 -1.9712279
-0.6834653 -0.50659996 -0.99299151
-0.62748981 -0.49939996 -1.0658391
-0.82812995 -0.4434 -0.83175796
-2.1601787 -0.2061 -2.0327339
-0.57534379 -0.47939998 -1.1129196
-0.64442241 -0.50949997 -0.99936718
-0.75195897 -0.50749999 -0.87342602
-2.2140331 -0.1795 -1.9738128
-0.92545652 -0.47539997 -0.71933264
-2.1764796 -0.11210001 -2.0333683
-0.67195523 -0.51339996 -0.92065543
-0.59821922 -0.51059997 -1.013341
-0.75283688 -0.4461 -0.80594653
-0.68395722 -0.51519996 -0.87504357
-2.2344689 -0.1028 -1.9754088
-0.71333462 -0.51410002 -0.83452672
-2.2784469 -0.1301 -1.9519808
-0.81267524 -0.46779996 -0.71758968
-0.58482623 -0.4287 -0.9081437
-0.76801038 -0.46279997 -0.72882777
-2.2670922 -0.020200003 -2.0009139
-0.60834855 -0.5262 -0.83128554
-0.81047374 -0.48479998 -0.64657658
-0.83790946 -0.50150001 -0.6184966
-0.42837465 -0.50809997 -0.99616152
-0.53226358 -0.4434 -0.80870229
-2.368876 0.086099997 -1.9396088
-0.56541979 -0.53579998 -0.75053078
-0.60798925 -0.53329998 -0.69766301
-0.40304109 -0.52789998 -0.93088251
-0.36081094 -0.44839999 -0.98193771
-2.3637302 0.1445 -1.9538958
-0.53919297 -0.46039999 -0.70470458
-0.70133877 -0.49650002 -0.56674927
-2.4300847 0.1111 -1.9166253
-0.61932921 -0.48549998 -0.59250456
-0.47435492 -0.45679998 -0.72320169
-0.41890952 -0.4481 -0.78696746
-0.54729241 -0.54280001 -0.65453321
-0.43121445 -0.55019999 -0.7508803
-0.67713678 -0.52829999 -0.51883018
-0.32040659 -0.44779998 -0.87755531
-0.48096797 -0.54930001 -0.68185598
-0.37952492 -0.55399996 -0.76675135
-0.33208448 -0.55059999 -0.82878214
-0.27024698 -0.52029997 -0.91667634
-0.47685286 -0.46999997 -0.63792831
-0.5524894 -0.54579997 -0.57093459
-0.71419877 -0.52359998 -0.44362342
-0.49390849 -0.47579998 -0.60186952
-0.24829781 -0.46179998 -0.91225928
-0.47275618 -0.55399996 -0.62043267
-0.43319348 -0.55659997 -0.65770799
-0.32121384 -0.4533 -0.76635355
-0.6509856 -0.59189999 -0.45933497
-0.61208957 -0.59649998 -0.4875651
-0.61858761 -0.51050001 -0.45102
-0.58886951 -0.50449997 -0.46794677
-0.20624933 -0.51410002 -0.90662915
-0.37599245 -0.56209999 -0.669833
-0.68369478 -0.59670001 -0.40938896
-0.67717969 -0.53099996 -0.40310448
-0.43942177 -0.52029997 -0.58009583
-0.2435438 -0.45639998 -0.80842513
-0.41012356 -0.55519998 -0.60774976
-0.4645564 -0.66439998 -0.57563025
-0.43069407 -0.64489996 -0.60337895
-0.19866675 -0.46689999 -0.87509578
-0.52568245 -0.58770001 -0.49230355
-0.53809673 -0.55189997 -0.47520572
-0.35129178 -0.51190001 -0.63525003
-0.47435746 -0.5909 -0.52320611
-0.42829567 -0.55500001 -0.55222481
-0.44225115 -0.61360002 -0.54139644
-0.46010688 -0.70950001 -0.54852337
-0.15580061 -0.4824 -0.87524956
-0.30828187 -0.63249999 -0.67555481
-0.45961896 -0.49009997 -0.49187833
-0.41480175 -0.6552 -0.5580526
-0.23747623 -0.49970001 -0.73271579
-0.151131 -0.52289999 -0.86836153
-0.39196792 -0.7403 -0.6001032
-0.27589518 -0.60939997 -0.69205934
-0.22989869 -0.45809996 -0.72739118
-0.25589582 -0.75739998 -0.76341945
-0.62729913 -0.53139997 -0.34610885
-0.25959557 -0.80449998 -0.75862759
-0.20066267 -0.49439996 -0.74115294
-0.29377127 -0.50830001 -0.61742169
-0.20904255 -0.62709999 -0.73446721
-0.11709902 -0.50089997 -0.85521632
-0.21173489 -0.57359999 -0.71513051
-0.29658458 -0.83569998 -0.69489449
-0.4469842 -0.49830002 -0.4343943
-0.22564182 -0.83239996 -0.77141804
-0.27584291 -0.66539997 -0.63296884
-0.14845306 -0.55949998 -0.77672309
-0.13121489 -0.51139998 -0.79406577
-0.064669646 -0.69639999 -0.96400613
-0.17327139 -0.73469996 -0.76250976
-0.15340513 -0.46239996 -0.7189005
-0.21791086 -0.74009997 -0.69262761
-0.38794684 -0.57419997 -0.45473856
-0.12857369 -0.6505 -0.78589112
-0.12975773 -0.68720001 -0.78994185
-0.097188391 -0.81239998 -0.90193015
-0.22160813 -0.58239996 -0.61763149
-0.19442576 -0.68699998 -0.67755014
-0.1566326 -0.68129998 -0.7166906
-0.053076841 -0.78539997 -0.94552666
-0.56958914 -0.55269998 -0.27735221
-0.2479085 -0.74070001 -0.60198504
-0.11960194 -0.67140001 -0.75435156
-0.048022904 -0.67539996 -0.88297302
-0.20571727 -0.71329999 -0.63950771
-0.27916422 -0.58399999 -0.51812154
-0.069830455 -0.63629997 -0.81934482
-0.08539746 -0.46939999 -0.73310763
-0.18725297 -0.5869 -0.60432655
0.038370512 -0.70019996 -1.0551353
-0.098320581 -0.53710002 -0.71329123
-0.22188616 -0.84310001 -0.63271302
-0.03633485 -0.49419999 -0.79572862
-0.53308749 -0.55930001 -0.26112956
-0.076579578 -0.50849998 -0.71383446
-0.072982706 -0.56959999 -0.7278046
-0.11862496 -0.88779998 -0.78285939
-0.20990935 -0.81449997 -0.61156851
-0.24239305 -0.58929998 -0.50263196
0.072483562 -0.71990001 -1.0906496
-0.0077612177 -0.84899998 -0.96383768
-0.11416591 -0.58770001 -0.65333611
-0.043146707 -0.6552 -0.78232723
-0.52812576 -0.59539998 -0.24713558
0.0080833659 -0.88529998 -1.015594
-0.15335041 -0.74059999 -0.63140565
-0.085619159 -0.68150002 -0.70769173
-0.16059139 -0.86589998 -0.67814738
-0.030579127 -0.71109998 -0.8095594
0.059032463 -0.7762 -1.0445476
-0.60764527 -0.57819998 -0.18586737
0.04640498 -0.86579996 -1.058619
-0.050067611 -0.47100002 -0.69311446
0.036074899 -0.59009999 -0.86871129
0.016860269 -0.5029 -0.80219203
-0.26639187 -0.49059999 -0.41579914
0.083505474 -0.6444 -0.97195917
-0.46513578 -0.64489996 -0.26283371
-0.0047092214 -0.55119997 -0.7547515
0.010856174 -0.60319996 -0.79399139
-0.52109754 -0.55360001 -0.20916229
-0.10755865 -0.59490001 -0.59849197
0.075056039 -0.8696 -1.0783939
-0.17713052 -0.59609997 -0.506594
-0.34975535 -0.5855 -0.33198899
0.069134556 -0.62839997 -0.89565033
-0.52460253 -0.60899997 -0.19963312
-0.1502904 -0.4774 -0.50130552
-0.11488555 -0.47350001 -0.53918248
0.12704262 -0.5891 -0.98855048
-0.26345477 -0.58520001 -0.38851196
-0.029909529 -0.70050001 -0.6953997
-0.3525565 -0.63660002 -0.3092407
0.17596313 -0.68229997 -1.1416178
0.16966286 -0.75959998 -1.1637301
0.10095992 -0.57849997 -0.86552721
0.13951549 -0.54930001 -0.94794708
-0.14309666 -0.6013 -0.48744553
-0.25254852 -0.62309998 -0.37102181
0.05497738 -0.95539993 -0.96357137
-0.43344918 -0.57739997 -0.20815092
0.089287542 -0.69010001 -0.85174447
0.023412637 -0.57389998 -0.69004303
0.076634996 -0.59889996 -0.78785914
0.14100668 -0.5212 -0.89996415
-0.19108391 -0.59539998 -0.40616202
-0.47116095 -0.54759997 -0.16466963
0.039154373 -0.92629999 -0.86517745
-0.28118423 -0.59639996 -0.30322027
0.1612328 -0.88959998 -1.1265314
0.17707726 -0.57059997 -0.94988805
-0.090102054 -0.4795 -0.4748562
0.23320433 -0.65450001 -1.1530733
0.060053878 -0.56729996 -0.6953786
0.22100118 -0.78079998 -1.1944096
0.098018371 -0.96890002 -0.9690221
0.057832144 -0.9271 -0.82942671
0.070244662 -0.69629997 -0.72712749
0.068307899 -0.66159999 -0.69968206
0.060280405 -0.72710001 -0.70578617
-0.18917021 -0.60570002 -0.34964734
0.21687582 -0.85249996 -1.1765549
0.1649172 -0.62779999 -0.86734992
0.045493953 -0.90189999 -0.76179701
0.23373362 -0.81709999 -1.1957562
0.22123256 -0.58039999 -0.99200875
0.057388566 -0.96629995 -0.82039493
0.10069885 -0.97999996 -0.92137939
-0.3768999 -0.93329996 -0.25800472
0.2397038 -0.65709996 -1.0082159
0.1791881 -0.9594 -1.058032
0.048616014 -0.9242 -0.72918946
0.26354346 -0.75549996 -1.1447244
0.25101581 -0.7931 -1.1280229
0.059201621 -0.59979999 -0.59985465
0.063366942 -0.47780001 -0.58644015
0.092546962 -0.87809998 -0.74369889
-0.03569258 -0.48299998 -0.43421626
0.28738633 -0.76969999 -1.1774271
-0.31113255 -0.73879999 -0.2042923
0.22354802 -0.65700001 -0.89819831
-0.26857767 -0.70700002 -0.22978508
0.29596087 -0.64480001 -1.1069756
-0.42103937 -0.94870001 -0.18725652
0.23935276 -0.55149996 -0.89762372
0.10815873 -0.79549998 -0.71125847
0.017833017 -0.61479998 -0.51130724
0.28413513 -0.70840001 -1.0830584
0.1622912 -0.98890001 -0.95289832
-0.44547045 -0.56330001 -0.066572368
-0.15330902 -0.61299998 -0.3045339
0.047480218 -0.61229998 -0.54135674
0.15606007 -0.51539999 -0.68649095
-0.26310274 -0.52469999 -0.18410218
0.29841658 -0.5643 -1.0123222
0.2571632 -0.63940001 -0.91737515
0.28547373 -0.64969999 -0.99133974
0.31236008 -0.76169997 -1.1539714
0.33894649 -0.60369998 -1.1499221
0.073004566 -0.47819996 -0.52514726
-0.084894396 -0.49540001 -0.3276363
0.2896789 -0.903 -1.1862562
0.12599105 -0.79329997 -0.67317206
0.16262257 -0.90759999 -0.79212433
-0.20954168 -0.5359 -0.19193172
-0.41880107 -0.56650001 -0.032779664
-0.053099789 -0.62150002 -0.35176641
-0.35944504 -0.95429999 -0.17097199
0.34546962 -0.60969996 -1.0666239
0.2809411 -0.90639997 -1.0593905
-0.21621627 -0.64739996 -0.18669248
-0.10833851 -0.50379997 -0.26664269
-0.34440592 -0.5959 -0.074923456
0.17993787 -0.86229998 -0.75593334
0.3689554 -0.57569999 -1.1015453
0.33592376 -0.8926 -1.2159579
0.22043678 -0.99489993 -0.92838722
0.3428801 -0.78939998 -1.1217091
0.32071605 -0.64899999 -0.95429832
0.3163465 -0.89489996 -1.1166668
-0.2417444 -0.76910001 -0.17310846
-0.31963533 -0.99019998 -0.18621957
0.36791739 -0.56589997 -1.0449431
0.3034496 -0.96670002 -1.1188049
-0.34098125 -0.55559999 -0.043991745
0.21347052 -0.8276 -0.75185305
0.36322245 -0.84459996 -1.1828749
0.016120575 -0.4903 -0.35547322
-0.33539104 -1.0662 -0.18970925
-0.15925756 -0.51910001 -0.17523712
0.40476552 -0.58969998 -1.1431205
-0.25590414 -0.83410001 -0.15523392
0.2025007 -0.94010001 -0.78085345
-0.2731626 -0.6067 -0.086726427
-0.20812908 -1.0171001 -0.26468509
0.35569826 -0.63249999 -0.97010738
0.21577427 -0.79570001 -0.70526296
-0.20850971 -0.53069997 -0.12174433
0.42239454 -0.62669998 -1.2091858
0.37986943 -0.60399997 -1.0182419
0.38358095 -0.87199998 -1.2460132
0.36179367 -0.71929997 -1.0051498
0.16787753 -0.48559999 -0.52842253
-0.10517905 -0.5126 -0.2005704
0.35316464 -0.83209997 -1.0376956
0.36407819 -0.85280001 -1.0909929
0.41198882 -0.62519997 -1.0892093
0.25637498 -0.97980005 -0.87154037
-0.34651393 -0.56459999 0.00042536855
0.23598203 -0.83149999 -0.71866208
0.34695068 -0.82690001 -0.95685869
-0.042015411 -0.50529999 -0.23576772
0.37376148 -0.58959997 -0.90802103
0.43746695 -0.57599998 -1.1028798
0.45270583 -0.5984 -1.1736856
-0.18385452 -0.70899999 -0.12524033
-0.25746676 -0.91909999 -0.12454051
-0.22728902 -0.61439997 -0.068871021
0.13903394 -0.63 -0.45438105
0.36013594 -0.93110001 -1.0320213
0.27201509 -0.90270001 -0.77145094
-0.25918594 -1.013 -0.1457181
0.19188014 -0.48649997 -0.48904878
0.34769779 -0.6573 -0.8085646
-0.21243346 -0.93610001 -0.15054047
0.1150116 -0.48789996 -0.37838888
0.40201941 -0.74979997 -0.97987682
0.46907905 -0.7493 -1.2599263
0.33315104 -0.7101 -0.7717604
-0.31319404 -1.0104001 -0.087862909
0.43788722 -0.57519996 -0.99735194
0.42816803 -0.8901 -1.1883862
-0.12531283 -0.52649999 -0.11204308
0.4087064 -0.83520001 -1.0296946
-0.30363998 -0.91060001 -0.048114777
0.36598822 -0.99680001 -1.0352845
0.37474462 -0.9217 -0.97971827
0.42938444 -0.93360001 -1.207679
0.46821716 -0.60839999 -1.080219
0.39674464 -0.8847 -1.0140128
-0.21472403 -0.88569999 -0.093907833
-0.38651457 -0.59279996 0.095342159
0.35090718 -0.98820001 -0.94020587
0.064014815 -0.63879997 -0.29051799
0.4603301 -0.74559999 -1.0742798
0.50770724 -0.64660001 -1.2090201
0.0050201342 -0.50819999 -0.19929975
0.40072355 -0.99190003 -1.0731213
0.39478347 -0.94749999 -1.0004098
0.006334953 -0.63809997 -0.21322244
0.51074618 -0.60319996 -1.1755562
-0.30273214 -1.1047001 -0.094942391
0.42830935 -0.71849996 -0.90314132
0.35108706 -0.89819998 -0.8050943
-0.14014128 -0.94150001 -0.13292676
-0.24998665 -1.1242001 -0.12158448
-0.18688723 -0.90020001 -0.076493084
0.51238418 -0.58230001 -1.0751193
0.40655354 -0.73219997 -0.80282336
0.44095811 -0.81849998 -0.93723303
-0.466001 -0.3152 0.1974676
0.38004479 -0.92570001 -0.84513801
0.4473013 -0.93150002 -1.0308464
-0.26882237 -0.57029998 0.077391058
0.49659446 -0.6067 -0.96646792
0.43679717 -0.8484 -0.91624004
-0.28550866 -0.37039998 0.10168958
-0.57354081 -0.32769999 0.26140323
0.067512326 -0.50650001 -0.19866014
-0.30428708 -1.1048001 -0.040235609
-0.29664376 -0.24519999 0.10800299
0.46322253 -0.71539998 -0.89547008
-0.2457509 -0.3811 0.080352008
-0.52059966 -0.40439999 0.2425001
-0.60063761 -0.29119998 0.27647024
-0.31693006 -0.54259998 0.12606612
-0.36243823 -0.53789997 0.1568436
-0.14607492 -0.96199995 -0.092204094
0.24017271 -0.63959998 -0.41820353
0.050015517 -0.51069999 -0.16696548
-0.6330483 -0.36549997 0.30153334
-0.67755669 -0.3362 0.32284248
-0.45640728 -0.57230002 0.2154845
-0.12722793 -0.2868 0.0038398504
-0.19065112 -0.2217 0.050387651
-0.10965287 -0.35679999 -0.0019192696
-0.39607349 -0.48019999 0.19658566
-0.16658807 -0.55599999 0.039266109
0.43636605 -0.94819999 -0.90998679
-0.31016499 -0.64349997 0.13278356
-0.093908198 -0.53979999 -0.012048692
-0.16909596 -1.1132001 -0.11447769
0.30690113 -0.4971 -0.46342653
-0.19006735 -1.0635 -0.072001219
-0.35450715 -0.65579998 0.16358066
0.46495053 -0.75159997 -0.83607692
-0.60088354 -0.1838 0.29924428
-0.45799527 -0.1575 0.229334
-0.14580485 -0.44619998 0.043663681
0.11898776 -0.50440001 -0.20690209
-0.22144023 -1.1349001 -0.072940648
-0.76668769 -0.28479999 0.37326303
0.073783167 -0.64849997 -0.17479873
-0.10388782 -0.59810001 0.0030661225
-0.28183493 -0.1525 0.13005266
0.50249451 -0.93879998 -1.0704486
0.4603534 -0.82199997 -0.83503944
-0.018759452 -0.3723 -0.052087247
-0.27049002 -0.68279999 0.12350264
-0.72247612 -0.43559998 0.37163979
-0.684304 -0.1767 0.35075581
-0.22132561 -0.68549997 0.097657919
0.023469053 -0.64749998 -0.097945273
-0.30811808 -0.69589996 0.15792894
-0.50599051 -0.119 0.2754038
-0.091962241 -0.65829998 0.009921819
-0.0060269609 -0.5776 -0.053433895
-0.80441672 -0.2228 0.40451443
0.47928253 -0.91579998 -0.89885336
-0.65382588 -0.1505 0.34574547
-0.5811367 -0.13080001 0.31324691
-0.29626116 -0.61909997 0.16886571
-0.84899211 -0.25929999 0.4247075
0.52081251 -0.89379996 -0.99292094
-0.61356068 -0.63449997 0.33808678
0.55671334 -0.71849996 -0.96953887
-0.62456614 -0.55309999 0.35402483
-0.89102215 -0.28209999 0.44550946
-0.12918478 -0.69400001 0.051850468
-0.1896113 -0.62619996 0.11398867
-0.18673933 -0.676 0.10436308
-0.90329462 -0.3698 0.458253
-0.85394591 -0.43239999 0.44592735
-0.92152953 -0.33499998 0.46346927
0.54909885 -0.79699999 -0.95532757
0.089928649 -0.5237 -0.10883385
0.11492284 -0.39789999 -0.12534273
-0.037790664 -0.68849999 -0.0056502223
0.10705995 -0.46700001 -0.11676162
-0.89747787 -0.22379999 0.45812786
0.55184758 -0.9228 -1.0483668
-0.052252747 -0.58270001 0.025100648
-0.19508329 -0.086800009 0.11911088
0.11945199 -0.2334 -0.13049799
-0.10372672 -0.095400006 0.058745146
0.55920428 -0.89669997 -1.0146246
-0.76963383 -0.13080001 0.42196026
0.25999126 -0.49720001 -0.27387673
0.13634765 -0.58789998 -0.13563389
-0.8994388 -0.45469999 0.48293138
-0.69464409 -0.56809998 0.41584629
-0.019930832 -0.55009997 0.024683863
0.15540022 -0.5528 -0.14663392
0.15416744 -0.43129998 -0.13656908
-0.92513418 -0.18880001 0.48402566
-0.27740782 -0.75309998 0.19112065
0.11266974 -0.66009998 -0.10764521
-0.0065469369 -0.66119999 0.0080654621
0.18744314 -0.54829997 -0.16513389
0.12419076 -0.1543 -0.10529017
0.59088528 -0.87099999 -1.0085514
0.22076204 -0.66119999 -0.21462375
-0.27733243 -0.040000003 0.2080512
0.62120897 -0.70989996 -0.97582942
0.42078862 -0.51279998 -0.46116763
-0.94598818 -0.16320001 0.50830555
0.25703371 -0.31899998 -0.21939939
0.43418828 -0.59990001 -0.49095875
0.23076665 -0.22489999 -0.19349533
0.61193478 -0.8215 -0.99449271
0.28879985 -0.66170001 -0.28057897
0.32952073 -0.4964 -0.3112483
0.21207222 -0.625 -0.177275
-0.94402713 -0.4896 0.52530217
-0.011412196 -0.061799999 0.035238594
-0.37112963 -0.76279998 0.28298968
-0.060865574 -0.75529999 0.074182808
0.12359679 -0.1006 -0.077118933
-1.0749934 -0.38369998 0.55946183
-0.50741363 -0.022099998 0.35693896
-0.82480025 -0.55189997 0.50380921
0.08072453 -0.73390001 -0.033775955
-1.0809824 -0.233 0.56268859
0.29061785 -0.24890001 -0.23163003
0.054371051 -0.68589997 0.0033785403
0.095234521 -0.077100009 -0.039843917
-0.45645967 -0.75959998 0.34299371
-0.99135852 -0.49089998 0.55332172
0.41284183 -0.63419998 -0.41293186
0.35546651 -0.65829998 -0.33130878
0.14391637 -0.71740001 -0.084924519
-0.42384782 -0.76489997 0.33247909
0.28435135 -0.6103 -0.22108388
-0.16295815 -0.74110001 0.18035328
0.30527809 -0.42629999 -0.22623771
-0.55208492 -0.75 0.40016598
0.19941399 -0.70120001 -0.13139981
0.055371054 -0.74900001 0.0051105917
0.32820341 -0.36609998 -0.25333005
-0.069535814 -0.764 0.11036551
-1.0520334 -0.1665 0.56802964
-0.22371103 -0.002799999 0.2221262
-0.11576241 -0.0057999976 0.15529871
0.46979114 -0.60719997 -0.46209282
-0.99408412 -0.1083 0.56240094
0.35402617 -0.4075 -0.26200348
0.3448866 -0.53829998 -0.2560339
0.39120474 -0.49989998 -0.31660849
0.4923915 -0.57230002 -0.48414779
-0.98667955 -0.53130001 0.57902598
-0.18973744 -0.77489996 0.21937017
0.32729548 -0.66929996 -0.24830252
-0.88153517 -0.57440001 0.55654138
-0.72213572 -0.70959997 0.49822932
-0.84348816 -0.045700002 0.52984071
-1.1306312 -0.18370001 0.60509431
0.24598053 -0.7166 -0.14454406
-0.46915978 -0.77169997 0.39339644
-0.75710279 -0.016799998 0.50906456
0.38914043 -0.48479998 -0.28158385
0.3641142 -0.6239 -0.26113051
0.2019712 -0.056799997 -0.08357054
-0.79325002 -0.018199999 0.52785569
0.13207656 -0.021400001 -0.011231601
-1.1892542 -0.20560001 0.62935632
0.35866046 -0.15460001 -0.24077678
0.083321042 -0.71740001 0.053521395
-0.34030548 0.030100001 0.33897871
-0.061919659 -0.58270001 0.2051571
-0.52984732 0.025500001 0.44148254
-0.95793843 -0.051800001 0.59060699
-0.13060816 -0.7306 0.23638511
0.078896247 -0.58270001 0.093257427
-0.028722234 -0.7816 0.1506567
-1.2630239 -0.32269999 0.65878367
-0.092342794 0.029300001 0.19466269
0.37186286 -0.1188 -0.23130959
0.060186975 -0.77740002 0.083851993
0.40358928 -0.67559999 -0.27075785
0.42330328 -0.17210001 -0.28641218
-1.1693624 -0.4975 0.65920997
0.23706272 -0.76019996 -0.080390155
0.48005703 -0.64160001 -0.3739118
-1.2291366 -0.44209999 0.66727805
-1.2805506 -0.28579998 0.66982645
-0.71264404 -0.74009997 0.54066944
0.2716215 -0.75809997 -0.10773277
0.43661323 -0.64410001 -0.29455858
-1.0912186 -0.082900003 0.63995898
0.51591039 -0.51919997 -0.39461178
0.54408324 -0.53530002 -0.44101501
0.0026925802 -0.58270001 0.18886876
-0.82337403 -0.68919998 0.59847945
0.51415044 -0.3285 -0.36646014
-1.2677444 -0.44439998 0.69060743
-0.80500376 0.011399999 0.57909769
-0.99832296 -0.60069996 0.65225905
-1.2532147 -0.1681 0.68337345
-0.49920768 0.050500002 0.47275203
-0.25882074 -0.78729999 0.35971439
0.52720517 -0.26499999 -0.37064868
-1.3281692 -0.37639999 0.70574844
0.098524921 0.034200002 0.091855228
0.53351611 -0.63010001 -0.38791782
0.38576931 -0.74799997 -0.19742292
0.24361712 -0.77389997 -0.03463769
-1.1951952 -0.5309 0.69906616
-0.9765383 -0.012700003 0.64199108
0.54482764 -0.39449999 -0.37412578
-0.0093932524 -0.78729999 0.20173548
-0.63568252 -0.76249999 0.55397069
0.12672105 -0.62290001 0.12869239
-1.1078068 -0.58919996 0.7002275
-0.090708159 -0.62449998 0.30549392
-0.72305065 0.044500001 0.58524466
-1.2342851 -0.53530002 0.72556067
-1.0752937 -0.60539997 0.70374179
-0.75496554 -0.73579997 0.61856639
-1.372898 -0.38639998 0.73607588
-0.32411015 -0.78729999 0.43562984
-0.10679495 -0.78729999 0.30843079
0.50738984 -0.71329999 -0.29696995
-0.8851189 -0.671 0.67373419
-1.1212651 -0.031399999 0.70291698
0.12664881 -0.78729999 0.13196725
0.16042355 -0.78729999 0.10126683
-0.086958155 -0.74599999 0.31198913
-0.80079865 -0.71560001 0.65438116
-0.20355627 -0.78729999 0.38623527
0.46882591 -0.048599999 -0.2303645
0.60601377 -0.53920001 -0.40494829
0.43492201 -0.76230001 -0.1868878
0.12201902 -0.58270001 0.18694824
0.33212021 -0.78130001 -0.058945954
-1.3849927 -0.189 0.75252736
-0.79231089 0.050300002 0.64128244
-0.57098264 -0.76709998 0.58243412
0.57301521 -0.50809997 -0.32250345
0.56774986 -0.1055 -0.33782321
0.64001 -0.22950001 -0.43046498
0.14832106 -0.69440001 0.1661047
0.59089303 -0.65969998 -0.36053807
-0.013837785 -0.625 0.31503731
0.29950216 0.044500001 -0.0052419305
0.63696408 -0.58679998 -0.41254061
-1.0879071 -0.634 0.75409448
0.027038611 -0.68949997 0.29143733
0.2316688 -0.78729999 0.09546721
0.096493833 -0.60249996 0.25133732
0.36226055 -0.78729999 -0.036741257
0.23794147 0.063600004 0.083531827
0.44809148 -0.77889997 -0.13467771
0.025566362 -0.77459997 0.29228732
-0.3520532 -0.7845 0.53363103
0.081858031 -0.75470001 0.25978732
-1.4929256 -0.2561 0.80618215
0.16421703 -0.63879997 0.21223731
-0.95436692 -0.67329997 0.7575931
-0.30683041 -0.787 0.51675922
-0.50531936 -0.77130002 0.61276621
-0.40659127 -0.7802 0.56996834
-1.5127451 -0.31459999 0.81485367
0.6575948 -0.51779997 -0.3644073
-1.4932083 -0.40449998 0.81789237
-1.3088524 -0.57840002 0.81260622
-0.85305524 -0.6882 0.74067003
0.56838274 -0.023200002 -0.26532704
0.58208364 -0.75989997 -0.2803964
0.44603506 0.0359 -0.1062395
-0.98536229 0.0491 0.74950755
-0.26226187 -0.78729999 0.50615418
-1.2854064 -0.030300003 0.79941607
0.40270087 0.0539 -0.038496554
0.67895138 -0.67879999 -0.39001662
0.73242617 -0.54280001 -0.4589954
-0.73499036 0.082400002 0.70056444
-0.95048583 0.059100002 0.7573154
0.15648121 -0.78729999 0.23263846
0.55216593 0.007100001 -0.21081549
0.28422296 0.077399999 0.095493674
-0.28200269 0.091800004 0.52136207
-1.535531 -0.2115 0.83978713
-1.4976763 -0.45919997 0.8479538
-1.5628504 -0.27789998 0.84666872
-1.0236224 0.0546 0.78683907
0.44776675 -0.78729999 -0.046040177
-0.77943009 -0.70120001 0.75959253
-0.71049231 -0.72920001 0.73699635
0.35416597 -0.78729999 0.07023862
-1.1122152 -0.66759998 0.83279192
-0.029539511 -0.78729999 0.40724114
0.59192032 -0.77770001 -0.22175878
0.76827002 -0.53719997 -0.46791196
-0.12288295 0.094500005 0.45316556
0.79737592 -0.41919997 -0.51369917
-1.1634696 0.036400001 0.82381672
-0.13258979 -0.78729999 0.4877528
0.77169889 -0.59009999 -0.45557326
0.20997339 0.089599997 0.2176896
0.50033158 0.057300001 -0.085395157
-0.80669677 0.085000001 0.76436532
-0.25866276 0.094700001 0.55118799
0.74870491 -0.085299999 -0.42439979
-1.209761 0.031500001 0.84303761
-1.4237132 -0.56639999 0.8814615
0.74868095 -0.67809999 -0.41584128
0.67866397 -0.76669997 -0.30971444
-0.13672614 0.093400002 0.49198845
-0.60907125 -0.75229996 0.73906267
0.56429756 -0.78729999 -0.13260275
-1.3582639 -0.60640001 0.88882309
-0.57386714 0.093999997 0.70903808
0.71873724 -0.026300002 -0.35490555
0.49898329 0.069300003 -0.051130414
-1.6203585 -0.39669999 0.8984617
-1.0235864 0.072500005 0.83670139
-0.75937623 -0.70779997 0.80632687
0.8189795 -0.55199999 -0.47548074
-1.3135202 0.017900001 0.8841213
0.064727001 -0.60420001 0.43491554
0.037966825 -0.6516 0.45036554
-0.63165134 0.095100001 0.75175285
