# .PCD v0.7 - Point Cloud Data file format
VERSION 0.7
FIELDS x y z
SIZE 4 4 4
TYPE F F F
COUNT 1 1 1
WIDTH 1430
HEIGHT 1
VIEWPOINT 0 0 0 1 0 0 0
POINTS 1430
DATA ascii
-0.10831803 -0.17305511 1.5310841
-0.17288855 -0.19352919 1.3668338
0.021853331 -0.60956794 1.1904794
-0.69851834 -0.27859059 1.0418792
-0.64529419 -0.26076186 0.76156682
-0.51113206 -0.25878778 0.65178704
-0.20040488 -0.20884657 4.0055981
-0.33853489 -0.35768968 1.1163539
-2.1539919 -0.35608953 3.835654
-2.6027114 -0.25186712 2.0142746
-0.35456324 0.46931309 3.0685701
-0.37719834 0.54190201 3.1210341
-2.0539975 1.1092333 3.0846143
-2.0719643 1.0232579 3.1233292
-1.9723089 0.64221358 2.9169407
0.10799307 -0.27645203 -0.4470948
-0.43848413 -0.51322824 2.7661135
-1.7523057 -0.027180426 3.2497416
0.40081683 -0.35554051 2.4669013
-3.0588331 -0.077339858 1.5930326
-2.3467693 -0.08107987 1.3287594
-1.6606138 -0.084674492 1.0720537
-3.3951507 -0.077283546 1.6647656
-2.9421349 -0.077262066 1.5710976
-1.04678 -0.12970196 3.3396139
-1.0638444 -0.57536572 1.6465344
-0.6089108 -0.20148581 0.47548741
-1.7361388 -0.10550126 2.2697334
0.25365806 0.27265981 -0.64847898
-0.73372233 -0.21773624 3.8664551
0.510813 -0.22431433 -0.20458281
-0.44411474 -0.23490335 1.3340827
-2.8252635 -0.1915255 3.235831
-2.6282661 -0.19274852 3.142004
-3.0708871 -0.19124255 3.3151588
-2.9550698 -0.19132026 3.2801039
-0.49542832 -0.48910636 1.51343
0.54094917 0.20657299 -0.56595707
-0.99185592 -0.081178702 0.91352004
0.43579602 0.22317505 -1.0855024
-2.8955972 -0.21607867 1.4467012
-1.9849608 0.82022989 2.8761268
-1.7995933 -0.07551679 2.5187247
-0.96256065 -0.21375526 1.0785608
-1.7110353 -0.15360479 2.6211915
-0.70921671 -0.1807211 3.8967195
1.0558743 -0.36808717 -1.7024275
-1.3273859 -0.18586932 1.4769349
-1.2433521 -0.42873383 4.3318653
-0.18357846 -0.40188637 1.8756065
-1.4267993 -0.075292453 2.0963693
-0.30672443 -0.23670478 1.593773
-1.4286814 -0.079124771 2.3207223
-1.9231683 -0.3632516 2.7161868
-1.5966469 -0.05425714 3.8056326
0.4141255 0.062957823 -0.14826167
1.2090986 -0.31151178 -2.1297939
-1.7056539 -0.51206279 2.8838444
-0.17004943 -0.25984582 2.1982279
-0.43436939 -0.41295865 1.2709234
0.18983147 -0.48043016 1.1314657
-0.62062687 -0.35313195 2.5171766
-0.13643637 -0.52362108 0.58115947
0.66314352 -0.3864162 -1.0871481
0.11430684 -0.12112954 1.832986
-0.25786969 -0.26804215 1.6059544
-0.077337436 -0.27542913 1.3027141
0.15477571 0.160989 -0.34441888
-0.41078144 -0.32490185 1.2835879
0.18398646 -0.21171762 1.0504736
-1.7384827 -0.068286523 2.8302412
-0.22313742 -0.56663889 1.9995157
-1.2739501 -0.36326462 4.0361276
0.3363381 -0.032731138 0.4139728
0.14158374 -0.023969103 -0.61964941
-1.554607 -0.20732537 3.4674168
-1.821445 -0.30318904 3.8992801
-2.2341633 -0.34381226 1.0434964
-0.47852653 -0.1753083 2.5794384
-1.9567544 -0.078238651 2.8955166
-0.66649032 -0.081860311 3.8948696
-0.62540394 -0.054742478 3.8010945
-0.81207222 0.0051196888 1.9086691
-2.6005771 -0.36723936 1.8497851
-0.87263083 -0.25367033 0.9939943
0.49150324 -0.36761761 -0.77464211
-1.0355308 -0.080482855 3.0940912
0.28489572 -0.25197148 0.18711233
-0.79807889 -0.46760887 1.2905421
1.4706278 -0.068153046 3.5363407
-0.15677249 -0.17181775 4.6957259
-0.17919278 -0.17241985 4.756887
-0.3709631 -0.17380208 4.4581718
-1.4534116 -0.41424397 3.0849457
-0.57791537 -0.26063439 0.40770817
-0.045213532 -0.58732718 1.3862936
-0.11445209 -0.59525317 1.4048402
-0.48873317 -0.2181817 4.0542827
-0.41793293 -0.21337014 4.1739721
-1.1659843 -0.27945408 4.038003
-0.74780387 -0.039236881 3.3147812
-1.1935377 -0.096158966 1.7459923
-0.77185667 -0.27933681 3.1459861
-1.1024455 -0.41149223 1.5228477
-0.50610107 -0.41608658 1.4673343
-0.46303743 -0.40857914 1.3374139
-1.4565275 -0.29915929 2.2443562
-0.32647771 -0.33926573 1.6219718
-0.98509055 -0.30179653 1.540199
-1.0931867 -0.31115216 1.7359393
-0.44205856 -0.26041254 0.63149297
-0.94528008 -0.29818052 1.464656
-0.51943028 -0.36799663 3.4816887
-0.22371367 -0.24438451 0.15365803
-1.8255208 -0.26441452 3.1684971
0.80371612 -0.29284728 2.7040138
0.45115149 -0.17995672 0.30258214
0.74623364 0.034178481 -1.401432
-1.3879311 -0.21946232 1.5861551
-0.15267956 -0.073717244 2.1234877
0.90672857 -0.19651581 -1.1701807
0.014482051 -0.34616822 0.82467949
-1.6628234 -0.44796911 3.4738033
-1.7036912 0.12034474 2.32547
-1.7212459 -0.033065859 2.3748655
-1.8959177 0.59480649 2.746372
-1.9091864 0.61230844 2.7764072
-1.9439249 0.67244315 2.853873
-1.6928396 -0.044420101 2.309341
-2.1253464 0.48877823 3.2379036
-2.0996175 1.1681796 3.1567726
-1.3660688 -0.085155994 1.6251304
0.9329254 -0.087921597 -1.3198543
-1.2198641 -0.15411878 1.266011
-2.9334884 -0.11962168 1.461925
-0.9809199 -0.16095325 1.1471815
-1.8428906 -0.13956079 1.4278103
-1.1672279 -0.15393417 1.3157024
-2.3482821 -0.13328484 1.3108159
-1.3744912 -0.15285222 1.2020638
-1.7929224 -0.14452223 1.2458997
-1.8014967 -0.14272143 1.3170953
-1.9992936 -0.13803977 1.3727851
-1.6390817 -0.14782299 1.2174134
-1.6255476 -0.14362845 1.4164722
-1.1500022 -0.15643355 1.2171017
-2.0085039 -0.13654204 1.4328226
-1.5810888 -0.1445889 1.4083178
-2.1544709 -0.13264559 1.4918078
-1.6774631 -0.16053437 2.1131082
0.87159628 -0.18340608 -2.127522
-1.8968687 -0.17359799 3.9917865
-0.96013993 -0.21556336 3.1695952
-1.1048125 -0.2163589 3.4513869
-0.52240515 -0.19607228 2.6745443
-0.62284392 -0.20991845 2.5916972
-0.59696788 -0.20030084 2.7392693
-0.90156227 -0.15625758 0.63778543
-0.27898592 -0.39600918 1.5320364
-0.79631972 -0.1732064 1.4033443
-0.87178987 -0.16620313 1.3923999
-1.2844868 -0.24718624 1.4927795
-0.35641104 0.10086636 3.1555328
-0.25194469 -0.028211966 2.9197555
-0.37401834 0.0084815472 3.2013469
-0.49198544 0.76260364 3.4344945
-0.52155828 0.72388822 3.5052538
-1.2965813 -0.17594734 3.8075161
0.76015472 0.056038506 -1.1054572
0.6672169 -0.25741401 1.8441541
-0.070764929 -0.18909131 1.854165
-0.13641068 -0.2190322 2.6599755
-0.56115651 -0.090273023 2.4724569
-0.3499428 -0.57458514 1.9588336
-1.8867704 -0.41430432 3.0389402
-2.0949953 -0.47385442 3.1506519
-1.7522085 -0.48941484 2.8871827
-1.053069 -0.56577003 1.7940269
0.12670325 -0.18916897 1.7511386
0.4506568 0.2590915 -1.0679666
-0.27611905 -0.31604451 1.9417777
0.82029343 -0.21200463 -0.86209357
-1.2170787 -0.083921283 1.5714347
-1.2080182 -0.059489969 2.1276515
-1.1550639 -0.061793648 1.9301734
-1.1503115 -0.059656177 2.201978
-1.9325038 -0.1141901 2.767715
-1.7254322 -0.090256266 4.6117563
-0.86261165 -0.072001271 2.7187986
-0.60815835 -0.071887985 2.9761553
-0.46894488 -0.051995739 2.6637747
-0.9512378 -0.099946938 3.2649784
-1.2120887 -0.1263909 3.6030226
-0.7682907 -0.070009321 2.769515
-0.65840083 -0.07064575 2.8951004
-0.39346761 -0.48951158 1.864454
-1.0999317 -0.25300562 1.888489
-0.81217843 -0.26905668 1.465374
-1.8056352 -0.047692031 3.1445837
0.27229443 0.20181105 -0.015476465
0.61299533 -0.15076995 3.1924253
0.83111888 0.046089076 -1.5195616
-2.0880067 -0.25226194 3.4399836
-0.019239828 -0.60013974 1.1724908
-0.016895041 -0.22866496 1.8515415
1.2645141 -0.042589564 4.1613436
-0.413849 -0.31967783 1.221872
-1.378653 -0.07012783 2.3447366
-0.89174402 -0.014698956 2.3773131
0.44366008 0.045614988 -1.145565
-1.438486 -0.23190463 3.8443253
-0.48022249 -0.23030776 0.7477001
-0.44659549 -0.23259178 0.649189
-1.6353767 -0.070164584 3.2954168
-0.032881677 -0.26174781 -0.1720798
-1.7727451 -0.24661079 2.6832035
-1.6022818 -0.36359131 3.4616525
-0.40174958 0.1211075 1.1299853
-0.35075408 -0.20728239 3.2466583
-0.74152994 -0.49975508 1.1946275
-1.9077542 -0.12820509 3.1364155
-0.67586911 -0.12577526 3.0626302
-3.6593537 -0.076257765 2.1572983
-2.0961771 -0.070621029 1.5941658
-2.7667141 -0.072263412 1.7542741
-1.7877235 -0.0706174 1.5957165
-3.5085278 -0.074976206 2.0255268
-2.3948915 -0.07230901 1.7626545
-3.5120003 -0.073085487 1.8277905
-2.8410275 -0.073681593 1.8995225
-2.9748211 -0.072318263 1.7520683
0.85500467 0.036378019 -1.3731434
0.041807503 -0.28389552 -0.15176237
-1.9344031 -0.30443338 4.0652332
0.13100687 -0.089931719 2.1562414
0.0052110851 -0.084451169 2.517221
-0.15066159 -0.46403903 1.9902225
-0.67011243 -0.0645997 3.302393
-0.53777021 -0.52821517 2.3031945
-2.1071477 -0.24223375 2.9599867
-2.4269361 -0.23111543 3.1754386
-2.1722765 -0.23926592 3.0408716
-2.1766653 -0.23575051 3.2044501
-2.0979564 -0.23972815 3.0930641
-1.7287123 -0.098987862 2.1040068
-1.6967678 -0.14238791 3.1452966
-1.6688335 -0.14760582 3.0226336
-1.6892257 -0.12731454 2.5918999
-1.6708889 -0.14345632 2.9110601
-1.9094906 -0.11300413 3.0921874
-0.62462562 -0.053879648 2.5067675
-0.45591724 -0.050021533 2.6216183
-0.38949892 -0.04420989 1.9718666
-0.40519002 -0.046125922 2.2123246
-0.50554174 0.045144007 1.687834
-0.33005115 -0.28566405 2.5822167
-0.021282434 0.08751554 -0.16156971
-0.21011582 -0.011316332 1.3210785
-1.4662206 -0.15302888 1.9173187
-1.3458744 -0.16752237 1.7516407
-1.5173669 -0.13523258 1.8924615
-1.524857 -0.14673349 2.0040617
-1.5303996 -0.24751788 3.3236008
-0.32402033 -0.17868507 4.8103476
-0.80577755 -0.18295431 4.5398026
-0.20391929 -0.18797947 4.702796
-1.1082634 -0.4559041 2.1156592
-1.4880605 -0.34889364 2.725811
0.62513989 -0.40418234 -1.2059354
-0.4865388 -0.50999486 3.4100022
1.0662796 -0.080183372 3.5955653
0.045289099 -0.12912072 2.2243891
0.40464169 -0.07789354 3.3031912
0.52876937 -0.099575922 2.9857645
-0.20137107 -0.1073851 2.4799705
0.70553869 -0.070810467 3.5792649
-0.02614367 -0.091766909 2.8421559
1.2030101 -0.070965305 3.8265395
0.41083437 -0.084167898 3.1961358
0.085099816 -0.082995854 3.0519209
0.40560526 -0.11554437 2.6427572
0.15555429 -0.082978219 3.0880544
0.77407217 -0.089350946 3.2889853
0.18313956 -0.10527393 2.7113972
0.28156918 -0.10244876 2.8114619
-0.059889585 -0.11213778 2.4690766
0.024244487 -0.074912906 3.1632533
0.67697674 -0.098313451 3.0822728
0.76267844 -0.092641659 3.2252419
1.1034219 -0.075498775 3.6968329
0.56430054 -0.07352069 3.4605315
1.0028453 -0.082139611 3.5302715
0.8112123 -0.083179198 3.4152617
1.2839594 -0.071382441 3.8598008
0.19539055 0.25777435 -0.46595955
-0.11782366 -0.16337445 1.6558913
-0.2760722 -0.1370229 2.0092368
-1.9744079 -0.2857672 3.1562798
-0.40152451 -0.41859451 1.8843617
-2.958611 -0.179913 1.5820843
-2.1884005 -0.36834282 0.96416628
-0.3815884 0.11998711 0.95831788
0.31175423 -0.2235354 -1.15453
0.28656429 -0.2431777 0.82089072
-1.3855339 -0.27400494 2.5329103
-1.1971954 -0.26173234 2.1857176
-1.4461981 -0.23843497 3.7361875
-1.8009205 -0.17801246 2.8042035
-1.2109897 -0.18780813 2.5252795
-1.3142947 -0.067828327 3.0128031
-0.3252826 0.091341726 0.66927874
-0.86445618 -0.048077092 3.17066
-0.34823054 -0.29493061 2.9989424
-2.4679389 -0.2901504 1.6481175
-0.61705971 -0.55303496 2.8375099
-0.57357448 -0.45503768 0.93572336
-0.52801186 -0.43471393 0.85769582
-0.27098137 -0.022875071 0.27647752
-2.07567 -0.39227447 3.5021882
-1.1812238 -0.47811753 1.7006824
-2.9142437 -0.11602965 1.6401513
-3.2771409 -0.10892113 1.6721166
-2.7272956 -0.11916578 1.6495649
-3.3331237 -0.1058439 1.7696848
-3.4360566 -0.10549203 1.7042943
-0.64879125 0.40813178 3.7781157
-0.67838341 0.12146007 3.8430641
-0.65131974 0.18736321 3.7855554
-0.4475852 0.0084726736 3.3579855
-0.56026495 -0.030219078 3.5956511
-0.63484728 0.30733389 3.7495422
-0.69023597 0.69128531 3.8627219
-0.60224617 0.47510076 3.6794069
-0.46771014 0.0078443177 3.4004202
-2.5477176 -0.34072843 1.7835412
-0.093839526 -0.43778932 1.1612208
0.70851457 -0.2559348 1.8076588
0.96734631 -0.44633687 -1.7712541
0.17959172 -0.24314052 -0.72833741
-2.5661793 -0.34180894 1.9664637
-1.9167303 0.87510431 2.7419171
-1.9398372 0.9317013 2.7911677
-1.3387953 -0.09854164 4.3047676
-1.7645715 -0.51623452 3.3106403
0.66907424 0.080408819 -1.4232037
-1.6206806 -0.30969667 2.4044285
-0.76768619 -0.28014162 3.2194834
-0.59335291 -0.27329201 2.9016013
-0.51248658 -0.27839819 3.4889865
-1.9808829 -0.10762329 2.9537482
-1.8414811 -0.12865317 2.6630363
-0.55926776 0.08133398 3.534266
-0.53306508 0.20591345 3.4639654
-0.62189245 0.57649302 3.6848083
-0.49182141 0.26526573 3.3564453
-0.52562159 0.14645931 3.4460666
-0.5356276 0.057042621 3.4739354
-0.55878496 0.45901504 3.5246525
1.3473349 -0.052919306 3.5207739
1.1399174 -0.062750742 3.0643716
0.80008399 -0.086794496 2.24698
1.3031833 -0.055747408 3.4165397
0.42773199 -0.089698419 1.5555748
0.43281379 -0.10556206 1.4269757
-0.28758842 -0.28102112 0.42460263
-0.16034794 -0.11532157 2.683393
-0.060679436 -0.10893037 2.5383563
-0.08013311 -0.084472403 2.7330542
-0.89081824 -0.36314115 1.7325368
-0.6165967 -0.21983397 0.65463501
-0.50876355 -0.22832856 0.80331469
0.45847201 -0.11148854 0.34193397
-0.17652389 -0.59679204 1.846756
-0.89625806 -0.30625409 1.7994137
0.2619029 -0.067705184 1.3881465
0.1352701 -0.070410125 1.778747
0.14126769 -0.061442647 1.6183227
-0.11387438 -0.24475178 2.0119684
-0.51871812 -0.49197701 1.5501013
0.94417483 -0.13270171 -1.3308852
-0.22506535 -0.21388425 1.4096599
-1.2325982 -0.081315503 3.9217038
-0.40590137 -0.060591694 3.05143
-0.80383754 -0.57897466 0.81872553
-0.28573191 -0.068886496 0.10994643
-1.9934483 -0.11288704 4.7120724
0.61173612 -0.33349773 -0.78027189
-0.48775876 -0.23556569 3.4688478
-0.039505482 -0.19391373 4.3072739
-1.157858 -0.11345698 1.3598204
-2.4370184 -0.20500007 2.9514756
-2.3961713 -0.20428185 2.9418237
0.79233044 -0.4415018 -1.694641
-1.7754993 -0.21957621 2.3484302
-0.40187705 0.098605603 1.3669788
1.1761434 -0.034461878 4.2361984
-2.1770577 -0.19095844 3.3892193
0.803074 0.033559449 -1.620597
-1.4802369 -0.047774948 3.634366
-0.72041404 -0.14044902 4.0022407
-0.56902456 -0.11831491 3.6208587
-3.0419915 -0.16567142 1.7858121
-1.2891409 -0.081089474 1.8645825
-1.5748568 -0.13889898 3.3250666
-1.3089385 -0.40983367 1.9840223
-0.67533648 -0.33074829 3.0447762
0.34322745 0.082595229 -0.86391604
0.41198906 -0.28623962 -0.24924755
-0.50715905 -0.3068454 3.0698059
-1.6087818 -0.44841889 3.3622489
-0.37264931 -0.52630252 2.5869243
0.33098921 0.13786411 -0.76985586
-1.8862209 -0.26386499 2.7032256
0.74815804 -0.12192734 2.2763016
1.0470463 -0.10150807 2.9064436
-0.52068704 -0.11744568 3.5088768
0.43530157 -0.12177111 1.2015193
-0.77489072 -0.20731001 4.0086408
-1.8066335 -0.31635776 2.7487786
-3.2797036 -0.082950585 2.1473544
-2.2320454 -0.082460642 2.3278928
-2.6237032 -0.086089693 2.2073727
-2.6542382 -0.086958796 2.1880312
-3.3271894 -0.078425124 2.2082369
-3.57621 -0.079110533 2.1569381
-2.9734676 -0.084756568 2.170007
-2.494555 -0.088935897 2.1833735
-1.6110585 -0.079664253 2.4734066
0.66431928 0.17220983 -1.2578351
-1.7313302 -0.2361649 4.1716261
-0.48883671 -0.097897127 3.0721378
-0.51157534 -0.106277 3.1341558
-0.74464333 -0.10570898 3.2262926
-0.50772178 -0.55674458 2.6762443
0.51725364 0.092933595 -0.70513713
-1.8609984 -0.094027206 3.089535
-1.8990852 -0.13613614 4.3755484
-1.0980093 -0.34842265 1.3796393
0.10513098 -0.2056905 1.5934262
-2.8993697 -0.27819705 1.3696922
-0.28848529 -0.57542408 1.721622
-1.9490848 -0.47773528 3.7442439
-1.1160706 -0.41601348 4.1312208
-1.6466811 -0.18631805 2.2220185
0.56247562 -0.3201786 -0.66181123
0.90541458 -0.24817128 2.5837669
0.76110232 -0.25173098 2.735842
-0.24494082 -0.42993122 1.5164536
-0.90965319 -0.57286614 1.1772945
0.31179449 -0.18322414 0.76494783
0.01759585 -0.33926323 1.5393095
-1.9493122 -0.17016335 4.816999
-0.38049752 -0.24119504 1.2120137
-0.22497675 -0.11211376 2.9370322
-0.74873966 -0.18852496 3.2115235
0.36211288 -0.25804698 0.65835905
-1.6556225 -0.230057 2.9552913
-0.7161358 -0.19686688 1.3368607
-0.64966476 -0.22558105 3.7755713
-0.77664971 -0.51395792 0.76903093
-0.27565479 -0.49528018 1.6152911
-1.07653 -0.26606339 2.0914419
-0.35543236 -0.18907893 2.4005442
-0.36055171 -0.19203226 2.3320875
-0.37387893 -0.18695801 2.517911
-0.27346024 -0.32973027 2.6059542
-0.26171878 -0.096232615 3.020071
-1.2602851 -0.26918322 1.7455795
0.36434141 0.11346009 -0.071110606
-1.7619529 -0.17838714 3.8945153
-2.0280466 -0.32330734 3.3015995
-0.57205582 -0.00017691404 3.5689795
-0.64015532 0.44830295 3.7344551
-0.57818717 0.72373849 3.5689802
-0.51025629 0.43413168 3.4002295
-0.51482779 0.38619012 3.4130845
-0.54041886 0.33914572 3.4800344
-0.58116567 0.49181229 3.5816777
-0.59319985 0.82645583 3.605314
-0.52709866 0.3942205 3.4444852
-2.123569 -0.37020051 0.92364192
0.68818223 -0.21913624 -0.56816459
-1.9037125 -0.30423474 2.7889352
-0.51908696 -0.47197843 2.1616449
-2.0595899 -0.45304289 3.0774918
-0.55732089 -0.30047512 3.3466873
-1.4558668 -0.092652544 2.9775887
-0.30434489 -0.32136261 2.0377228
-1.1430186 -0.22685175 2.4317689
-1.1823961 -0.23764947 2.8469212
-1.3738678 -0.22733866 3.0723772
-1.1927189 -0.22696763 2.5709183
-0.13939875 -0.49867207 2.0791113
-3.2372575 -0.19956598 3.4934905
-0.59304523 -0.10965499 3.745759
-0.70919174 -0.10788751 3.9916196
-1.4399014 -0.13599578 2.1127906
-1.0713536 -0.19728185 1.4496994
-0.70603025 -0.15207094 0.37639356
-0.59069276 -0.32617906 1.7012949
0.18850484 0.23864996 -0.1291486
-0.059971049 0.097980589 0.7984432
-1.4358441 -0.36822149 0.57877731
0.2114237 -0.094785564 1.962286
1.1191492 -0.42865682 -2.0415425
0.381091 -0.28755289 -1.1153388
-0.44234645 -0.21443719 1.9484938
0.10912958 -0.47227964 1.2924123
0.019541059 -0.4453744 1.4752237
-3.1829839 -0.19244105 3.5703688
-3.220727 -0.19252886 3.552582
-3.1325488 -0.19132233 3.4605908
-1.0233496 -0.049035609 2.9010229
-0.9974668 -0.26540825 2.0322485
-2.1148033 -0.36775747 3.5823059
-1.7636385 -0.024061762 4.4138055
-1.2609723 -0.26466918 2.2777095
-1.3323731 -0.26372376 2.2910299
0.2123867 -0.31461927 -0.15195847
-1.2819061 -0.21176893 3.8210058
-0.66932791 -0.53832144 1.1739488
-0.077976398 -0.56506073 1.7317455
-0.98609805 -0.077543221 4.033915
-1.4215479 -0.33315149 2.313817
-1.4377511 -0.33789533 2.3674321
-0.65332371 -0.22732939 1.09948
-0.27102309 -0.25234497 0.84907138
-0.6876806 -0.21764252 0.90279967
-0.41137642 -0.24146816 0.89011574
-1.0877917 -0.35979268 1.4812198
-1.1354976 -0.067360051 3.7274065
-0.25485128 -0.25018713 2.0526848
-1.167811 -0.55179352 1.9929626
0.98940247 -0.18659148 -1.4302689
-1.9891007 -0.20742269 1.7442675
0.7454654 0.073756896 -1.246299
-1.7843574 0.098349914 2.5143437
-1.6888182 0.045702871 2.2951028
-1.8501863 0.23464629 2.6598041
-1.7570837 0.23411065 2.4434094
-1.7080288 0.0034789257 2.3421106
-1.7876211 -0.00051821768 2.5272079
-1.4276624 -0.36023968 3.0893149
-0.95122194 -0.60814244 1.4401642
0.68479192 -0.42253664 -1.5130104
0.20996398 -0.21410117 0.96871233
-0.93551314 -0.22158474 3.7346244
0.59497535 0.056119703 -1.3675947
-2.1630449 -0.31795853 3.7142806
-1.6112843 -0.066554442 2.5427437
-1.7137856 -0.19074281 2.379395
0.94917512 -0.42984021 -2.1466703
-2.4723239 -0.23066521 3.1539056
-2.3186517 -0.23406163 3.143759
-2.5216527 -0.22872308 3.1968598
-2.7366462 -0.22486144 3.1683679
-2.0769718 -0.25420168 3.6446838
-1.1715759 -0.43220446 4.2813101
-0.26769984 0.16491222 0.77665162
-1.0563669 -0.15527898 1.4994603
0.24170682 0.18910499 -0.15256894
-0.27654099 0.051522791 1.3269672
0.308568 0.20348808 -0.85075009
-1.968303 -0.15875995 1.6952469
-1.4710891 -0.15854339 1.9742073
-1.5369406 -0.16206354 2.1574776
-1.5810897 -0.12128639 1.9289645
-1.4098805 -0.15389419 1.7910812
0.27231395 0.23556091 -0.73900712
-1.9500408 -0.22660178 2.9039135
-0.6470086 -0.6211043 0.92873627
-1.262223 -0.45964569 1.7274272
-0.18326965 -0.36244088 1.5853559
-0.1248494 -0.42489237 1.3589079
-0.91219312 -0.23166823 3.7544503
-1.4177372 -0.20274091 2.8121138
-1.3617263 -0.20322785 2.4482548
-1.3360016 -0.20469679 2.3706059
-1.2161896 -0.21615863 2.3370667
-1.4112496 -0.2362965 3.4128461
-1.2230809 -0.23930526 3.0045984
-2.1459434 -0.31634393 3.7690959
-3.4595485 -0.065537348 1.591895
-0.32319245 -0.26027343 3.1255832
-0.17438912 -0.26340118 0.65825832
-0.86016572 -0.58255434 1.4715607
-0.79376048 -0.58721727 1.2454183
-1.4236935 -0.3110334 4.3208008
-0.34087449 -0.15846278 2.6767073
-1.5691736 -0.2337693 3.7511368
-0.14102475 -0.14671755 1.9519275
0.89354533 -0.18063273 3.8386006
0.20546693 -0.27117398 0.14278066
-0.57697457 -0.0742428 2.6123285
-0.85643166 -0.27934992 1.1402985
-1.5240557 -0.068824485 2.025291
-1.4922954 -0.081305109 1.8210523
-0.2679446 0.20025158 2.9266505
-0.26926801 0.23723544 2.9107101
-0.22829923 0.079617046 2.8364334
-0.37955758 -0.16600609 2.8025253
-1.7270913 -0.31142244 2.5650477
-0.22262058 -0.24648884 2.8820252
-1.1738389 -0.10191242 2.1012685
-0.66944069 -0.62458265 0.96165597
-2.1714478 -0.37493005 3.9075582
0.64438486 -0.23133542 3.120769
0.63404751 0.22281896 -0.76869202
-2.6172152 -0.19849999 3.706948
-2.6212041 -0.20704256 3.5699739
-2.8533502 -0.20416552 3.5605898
-2.7608328 -0.22122496 3.3106661
-2.6114564 -0.21840417 3.3912916
-3.174969 -0.21166417 3.3637235
-2.7932663 -0.20262173 3.5992894
-2.6498866 -0.20742026 3.5579522
-1.7302428 -0.21006788 2.2371507
-0.79896921 -0.21703611 0.86691576
-0.051686198 -0.24077922 2.0156641
-1.698583 -0.1531958 2.1686022
0.76791227 -0.15545373 -0.85661054
-1.8531582 -0.15939206 2.5432353
-1.9037547 -0.56658906 2.7032611
0.35991773 0.18633327 -0.52201748
-0.24570543 -0.27104706 2.3257599
-1.8878276 -0.166219 4.3132129
1.3563712 -0.078840479 3.9155183
-0.57898247 -0.26086041 2.6066675
-1.115715 -0.13363513 1.2233555
0.73531967 0.12500626 -1.0723518
-0.73878437 -0.043073259 3.0529919
-0.54567915 -0.30415308 3.047462
0.73667872 -0.26816073 2.9378936
0.43870133 -0.13098407 1.0779886
0.26621324 -0.25713176 0.86253506
-0.41764143 -0.40031394 1.231896
0.036463469 -0.23656122 0.71106714
-1.9427594 -0.14225242 4.0278311
-0.53215885 -0.061615471 2.8185163
-0.94329464 -0.092554137 3.1058755
-0.97500277 -0.093582556 3.0950742
-1.116516 -0.11621698 3.4674375
-0.79919189 -0.083852746 3.053555
-0.69693375 -0.074357808 2.9418945
0.43472064 0.13591617 -0.44187844
-0.8342945 -0.25977316 2.7534723
-0.0047136545 -0.27494746 -0.1154319
-0.90497386 -0.55266148 1.6734713
-0.98123026 -0.49833113 1.8739567
-1.7108855 -0.18989266 2.2032807
1.627799 -0.051400531 3.3243828
1.0412263 -0.062085703 -1.7678432
-0.26459759 -0.51009279 0.95787352
-0.98918843 -0.48199862 3.9496303
-0.78056175 -0.097181827 3.4642594
0.56581867 0.045501776 -1.1005455
-1.621768 -0.10537065 3.6771584
-1.095453 -0.24084269 2.7037668
-1.2096812 -0.23013832 2.7071648
-1.1431454 -0.23737042 2.7335463
-1.3438812 -0.23063286 3.0857239
-0.52808285 0.69709903 3.4464867
-0.53649473 0.74322724 3.4670877
-0.43074188 -0.2571215 2.0356998
-0.50002432 -0.066820577 3.3673668
1.0406289 -0.43508911 -1.8538415
-0.62982213 -0.1756358 0.38183075
-0.091498941 -0.074377023 2.3189316
0.40562436 0.29843062 -0.96654081
-0.614712 -0.22432788 3.620338
-1.3087189 -0.4217861 2.7509065
1.040462 -0.23007685 -2.3262353
0.9576323 -0.21029624 -1.3306202
-2.0369785 -0.18413627 3.2749825
-0.88186073 -0.15573634 0.98841006
-1.1107291 -0.061870489 1.6154091
-1.0187949 -0.057003457 1.7120695
-1.0767163 -0.060064211 1.8771753
-0.98252976 -0.054962315 1.8116217
-1.231362 -0.15502991 1.7259979
0.090023041 -0.32429412 1.4609267
0.026894212 -0.081499428 2.370271
0.021364152 -0.066540092 2.0724595
0.18234512 -0.097241797 2.1185615
-1.2182232 -0.090149939 2.2332053
1.1170119 -0.19038127 3.2719111
-1.2113144 -0.1191824 1.8695154
-0.74344862 -0.59299785 0.80791169
-2.6427183 -0.24229258 2.0382521
1.4737778 -0.038753122 3.6749468
-0.079441175 -0.23391096 1.8196251
-3.5821514 -0.090781488 1.9166033
0.18850076 -0.058759145 2.3152721
0.2429828 -0.057910882 2.3894861
0.13766599 -0.059542511 2.2295561
1.2345309 -0.043385923 4.0026975
0.97092944 -0.047086481 3.5146036
1.2083385 -0.044283148 4.230866
0.82359588 -0.049153287 3.2396328
0.11156248 -0.41179517 1.2987415
-0.59045136 -0.06509456 3.1103783
-2.9675977 -0.2114072 1.6137886
-0.9674266 -0.21769974 1.9284166
-1.4471934 -0.16099338 4.1334462
-1.246753 -0.25826737 2.673835
-0.53063315 -0.24597567 3.2563503
-1.1871333 -0.25360301 1.7405829
-0.15126371 -0.070982493 2.3908958
-2.1903253 -0.19109091 3.4182544
-0.028480649 -0.1958378 4.3777671
-1.9289522 -0.26049194 4.0817428
-1.4621592 -0.36615175 0.48513344
-1.8238571 -0.18981063 3.7871349
-0.36316985 -0.19924957 3.6168785
-0.39665511 -0.20829572 3.4740715
-0.83762074 -0.27775124 0.92167288
-0.41552946 -0.3005828 3.0387359
-0.62603712 -0.30334225 3.1743531
-1.6427326 -0.20329523 3.5533929
-0.51706553 0.95522249 3.4822245
-0.5153141 0.91065115 3.4806015
1.09185 -0.062120415 3.9267378
0.7713058 -0.058552317 3.8270621
0.05580008 -0.064919136 3.354764
0.97226626 -0.05796406 3.9383712
0.67364722 -0.06899067 3.5956416
0.8660447 -0.052782755 3.9753389
-0.41250661 -0.071498044 3.0027218
-0.18477778 -0.51718903 1.3851749
-1.5472622 -0.28962106 2.7015858
0.99333286 -0.2183874 3.6087651
0.51877064 0.27921006 -1.0762498
-0.34347448 -0.14793308 -0.083931744
-1.7512565 -0.50169551 2.9574556
0.073887043 -0.55489004 1.530441
0.11736752 -0.2396366 0.60746288
-0.79675812 -0.20150803 1.5165224
0.78400522 -0.37009758 -1.1725854
-0.0038428903 -0.17614116 2.2767279
0.4200342 0.16661933 -0.68909431
0.21653837 -0.16841491 -0.85973465
-1.4297611 -0.29793954 2.3376608
0.4087899 -0.2454824 2.5127041
-0.7416358 -0.58912033 1.2627082
-1.0359724 -0.44535437 1.2643794
-0.41548881 -0.31943583 3.3066294
-0.12631848 -0.11801353 2.6393147
-1.0318044 -0.13132638 0.72263736
-0.36151445 -0.23036268 0.31335342
-0.64126521 -0.11189014 2.5331306
-0.79741526 -0.18405126 0.64035559
-0.74888712 -0.19416288 0.67496699
-0.34203926 -0.28927296 2.7981782
0.12531117 -0.10192684 2.2356238
-0.096310526 -0.12033342 2.5315113
-0.15157312 -0.13416792 2.545254
-2.1166542 -0.41577864 3.9788985
0.65812522 -0.28798348 3.2062607
-0.57779163 -0.059976369 3.0369248
-1.4302188 -0.062728457 1.9266603
-0.32886946 -0.20111412 2.7141948
-1.9729866 -0.4255448 3.8186634
-1.4435754 -0.058425665 3.8583205
-0.10929319 -0.60269713 1.6447529
-0.8966049 -0.24352413 3.6754656
-1.0663829 -0.45814663 4.1183753
0.58685553 -0.303758 2.0862789
-0.53990096 -0.17588034 3.9527626
-0.38558578 -0.17650144 4.0765767
-0.14603043 -0.17226091 4.5213957
-0.13446844 -0.1711998 4.5804844
-0.27074635 -0.17829058 4.1065097
0.43964869 -0.10887688 0.71750635
-1.005736 -0.15918855 1.4434006
-0.13701791 -0.15251052 2.6924832
-0.38400704 -0.36397925 3.2243552
0.41918457 0.10546656 -0.66117084
-0.82804525 -0.41490474 2.7994514
-1.2687963 -0.14791831 3.7625561
-1.4695479 -0.36945727 2.6654475
-0.80353051 -0.27409631 1.1159896
-0.79281062 -0.27241838 1.2374413
-1.1126082 -0.18662483 3.4288423
-1.1439853 -0.26679486 2.1901708
-0.15203679 -0.18017402 4.8549843
-0.44381362 -0.18037075 4.733068
-2.8226912 -0.18032219 1.2875156
-1.0933059 -0.4240725 2.2394559
0.85704726 -0.35422 1.5214378
-1.4049858 -0.20956698 2.3948352
-0.78701144 -0.57754695 0.89946181
-1.2659099 -0.35836613 3.8080785
-0.078274131 -0.17192294 4.6014538
-0.41696811 -0.18439224 3.6702676
-1.2880311 -0.075086333 3.5768313
0.87572914 -0.33180505 2.6981883
-1.9572479 -0.28042826 2.7930434
-1.451906 -0.24523607 2.5075922
-1.1309245 -0.58725929 1.6120996
-1.6080083 -0.3010534 2.8053761
-0.4824 -0.11089616 3.4014356
-0.13605863 -0.22456554 2.7062602
-1.740766 -0.33232102 3.753871
0.38050735 -0.082859926 1.0523508
-2.0506802 0.17026544 3.0524366
-2.0804248 0.4234727 3.1234772
-1.9639523 0.15107359 2.8293839
-2.0588069 0.63878733 3.0632071
-1.9879889 0.6184051 2.8811541
-2.0282457 0.506486 2.9871778
-1.9751163 0.096936017 2.8594077
-1.8924828 0.0078702755 2.6484339
-2.0121269 0.10374819 2.9545827
-2.0946784 0.11651709 3.1667728
0.96217287 -0.33378541 -2.2819421
-0.19006208 -0.25233257 0.81783843
-2.0974236 0.74790096 3.1603107
-2.1248007 0.31387261 3.240293
-2.1264436 0.56764513 3.2390056
-0.73753101 -0.49413872 2.7330818
0.064623803 -0.21915996 1.9220076
-1.5453169 -0.23606133 4.018343
-0.43766159 -0.062240649 2.8395398
-0.53277165 -0.50634736 2.390099
-1.4866078 -0.08710777 3.1990304
-1.5126462 -0.069464326 2.6416528
-1.459548 -0.06413427 2.4781046
-1.1906519 -0.063066632 2.4597449
-1.4570091 -0.072614342 2.7453499
-1.1929722 -0.058933217 2.3293219
-1.4552175 -0.075844064 2.846652
-1.5145497 -0.062402572 2.4212368
-0.49306577 -0.13938186 2.1654673
-0.2510137 -0.43300584 0.90065032
0.48401463 -0.27476361 2.2697444
0.77172184 0.080783062 -1.1784408
-3.0983453 -0.18398835 1.9275383
-0.083614469 -0.27348855 0.31217104
-0.69260395 -0.055636715 0.73583901
-0.47490594 -0.034974307 0.74352551
-0.66815042 -0.042913307 1.1528528
-0.6401841 -0.048399176 0.8273834
-1.5939252 -0.4505637 2.3909562
0.27754879 -0.062163942 2.1429663
1.0544877 -0.048182327 3.3888822
0.50879467 -0.056381226 2.5840495
0.58540553 -0.05355297 2.7747102
0.85096341 -0.054378893 2.9453783
0.88802654 -0.051301204 3.1156125
0.58741534 -0.056075834 2.6613832
1.2594991 -0.043476053 3.7601967
0.79550534 -0.058118258 2.732924
1.019285 -0.051603664 3.2064972
0.50212461 -0.069135949 2.0054224
0.84917372 -0.056524288 2.8487034
0.89189124 -0.048798181 3.2329965
1.1193542 -0.046725929 3.5054607
0.31968799 -0.062300846 2.1679919
0.53318965 -0.063169785 2.3015234
-2.085309 0.90618515 3.1525426
-2.1029711 0.98711246 3.1890371
-1.942022 0.16203818 2.8576798
-2.0767398 0.80893046 3.1353824
-2.1063976 0.13441733 3.2043266
-1.8909931 -0.039409727 2.7521148
-2.0152369 0.42179865 3.009573
-2.02846 0.62365812 3.03545
-1.954361 0.060602441 2.8845739
-1.995545 0.26863289 2.9694583
-0.20331082 -0.39508355 2.1377017
0.52341318 -0.13632336 1.7851181
0.98383588 -0.094582319 2.5854311
0.32291484 -0.13706446 1.147444
0.93012506 -0.10345119 2.5580838
0.43777329 -0.14043157 1.5752457
0.74640608 -0.10591282 2.0030711
0.79287952 -0.11723106 2.3430362
0.9496147 -0.15265623 -2.1693254
-1.0235388 -0.35107148 2.1135385
-1.6328297 -0.13162836 2.0232048
0.87965322 -0.072986774 -1.1870486
0.35774446 -0.09463793 1.3366773
0.27053392 -0.10418048 1.8866235
-1.3381156 -0.042660825 3.4656148
0.61567378 0.2678383 -0.7466861
-0.44793552 0.6536243 3.2595551
-0.36378419 0.18832546 3.0530229
-0.39390725 0.31794107 3.1260529
-0.42863065 0.32223856 3.2066028
-0.37671918 0.13406444 3.0818515
-0.36297095 0.099274337 3.0489426
-1.9913619 -0.21009809 2.8739605
-0.7678858 -0.40221125 1.4884229
-1.8736507 -0.50626719 3.5103929
0.30841523 0.25280938 -0.82156491
-1.9180827 -0.11629187 1.0074685
-3.258378 -0.088452734 1.5213172
-1.0927114 -0.1218207 1.9129689
0.034229368 -0.025453307 0.83541095
0.10992236 -0.0245027 0.76811147
-1.808709 -0.028947726 4.5695801
-0.01072225 0.20534882 0.49567121
0.99609959 -0.45240724 -1.8920134
-0.39678898 -0.1972218 3.5712857
-0.64319861 0.047640063 1.5116665
-0.52302527 0.052302968 1.1656089
-0.78153926 -0.56769943 0.7746231
0.14456312 -0.14762473 1.4423543
-2.6150746 -0.19543752 3.0575745
-2.7344022 -0.19387648 3.1386745
1.1766005 -0.2101748 3.0726926
-1.4329914 -0.50414234 2.8316104
0.98459828 -0.046812013 3.4689617
0.66320008 -0.051931217 3.1802917
1.1795821 -0.044024281 3.8595409
0.97078145 -0.047611155 3.7540932
0.53410542 -0.053588919 2.8399668
1.0265155 -0.046278473 3.5948501
1.1758171 -0.044424083 4.0227418
1.1436334 -0.044579778 3.8032174
-0.68861914 -0.62208414 1.1181289
-1.0576153 -0.11490978 1.3882462
-1.463583 -0.50161624 2.9031005
-2.0959795 -0.39338148 3.1519728
-0.16369201 -0.10546032 2.0036759
-1.6491202 -0.33023721 3.5706482
-3.4274442 -0.12374475 1.4638913
-0.30631563 -0.24898642 2.1046534
0.17256613 -0.37893164 1.2213304
-0.47066137 -0.53575945 2.1252613
0.40882766 -0.28981343 -1.2032082
-3.0203009 -0.072871521 1.8141842
-2.7141364 -0.072893083 1.8180168
-3.2058885 -0.073580757 1.8835742
-2.3606987 -0.072125234 1.7431793
-3.4832916 -0.075286955 2.0518789
-2.1935029 -0.07212431 1.7427897
-3.1705317 -0.073903278 1.911456
-0.084276199 -0.062173184 -0.21857452
-1.8217523 -0.44609183 3.7408755
0.69034517 -0.3250156 1.7548268
-0.28150833 0.084567741 2.8643363
-0.48011693 0.88480133 3.3621178
0.96253037 -0.13496281 3.6170831
0.19443661 -0.2613557 -0.66747785
-0.85473245 -0.42603576 1.0594491
-0.5371967 -0.49289647 2.4856114
-0.68191588 -0.37121534 2.9906406
0.52121359 -0.17974682 2.2507038
-1.9156809 -0.11961633 3.8410089
-1.8753009 -0.25963974 3.2015867
0.35025015 0.095418721 -0.74896395
-2.0627003 -0.28894594 3.0817263
-2.077673 -0.26790285 3.1128826
-0.86439186 -0.036872171 3.327323
0.059629261 -0.46167064 1.5780581
-1.1199795 -0.4719412 4.0865393
-0.9611482 -0.061418474 1.1945692
-0.89456481 -0.063788794 0.99730176
-0.90242606 -0.069136538 0.80834699
-0.85976875 -0.055689421 1.2515931
0.30576414 -0.24328102 0.76620567
-0.69571525 0.031179976 1.5906129
0.36190075 -0.23684491 2.6214328
-1.9393644 -0.12691985 1.6945698
-0.54861724 -0.3094745 3.5561485
-1.9092723 -0.039677881 4.611094
-0.70964348 0.034249298 1.8890889
-0.56301969 0.071810678 1.3691403
-1.0104764 -0.2613917 1.9683539
-0.01171872 -0.38949794 1.7807814
-0.41780046 -0.3860459 2.9570775
0.062013932 -0.43297842 1.3847717
-0.15513447 -0.18836652 1.9443632
-0.39091489 -0.19676541 2.2886436
-0.33071694 -0.20985785 1.9984221
0.25614288 -0.32126474 -0.59673047
-3.006232 -0.22073929 1.7036247
-1.0196203 -0.17576846 1.3287628
-1.3308334 -0.56938779 2.2132082
-1.7911197 -0.18354341 4.6991863
-0.46078426 -0.10292359 0.14804971
-0.8338598 -0.50085646 1.122085
-0.67555648 -0.56004047 0.93923563
-1.8612739 -0.036365956 4.4313564
0.5966469 0.026461847 -1.4418075
-1.0295223 -0.14641416 1.0224299
-1.1226919 -0.043872029 2.6727695
-0.44925696 -0.32058734 0.78486258
-0.8820225 -0.064333662 3.7700977
0.11264381 -0.28746718 0.13986623
0.24204355 -0.20127577 0.78989255
0.099636078 0.1046295 -0.4329505
-0.54865479 -0.057610206 3.1032219
-0.22498158 -0.26117429 1.3742845
-1.2756327 -0.10774577 1.4102036
0.99607188 -0.096031502 3.5585933
0.48062539 0.096691743 -0.69194853
-1.1738005 -0.42664543 3.6746426
0.90681154 -0.14291382 -2.1252072
-0.4205659 -0.28153622 0.64966202
-1.1557506 -0.29852954 1.4949908
-0.93991613 -0.17953885 0.93370914
-0.41133547 -0.31512135 0.62697053
0.15939516 -0.27787516 -0.55452907
0.20513855 -0.35568789 1.0467702
-1.6087422 -0.18543503 3.3579268
-0.63423848 -0.59738797 0.74933243
-2.3183811 -0.1026544 2.0020795
-1.7667428 -0.13309653 1.6232829
-1.431004 -0.12681983 1.7747462
-1.5348746 -0.092073023 2.2949538
-3.1417682 -0.10316941 1.8567492
-1.4939954 -0.14003845 1.5617239
-1.2662419 -0.12681237 1.8032632
-1.8932483 -0.10949481 1.9664245
-1.5719283 -0.13372226 1.6454885
-1.8149278 -0.11810929 1.8464036
-2.477766 -0.092075527 2.1378706
-1.6346967 -0.091241337 2.2913458
-2.0226068 -0.10913748 1.9507562
-1.8248825 -0.083566755 2.3773501
-3.23967 -0.10511129 1.810806
-1.5630105 -0.094980881 2.2455525
-2.6060653 -0.1050845 1.9161978
-1.6909801 -0.091355205 2.2799492
-1.8062205 -0.10839859 1.9976853
-1.3403354 -0.11872736 1.9157534
-1.7860067 -0.083416775 2.3866911
-1.8731506 -0.099115834 2.1296751
-2.4024074 -0.10451055 1.9583005
-1.5170064 -0.11190984 1.9913762
-0.83565545 -0.21591625 3.432178
-3.4673643 -0.096795239 1.9019781
-2.1638584 -0.07909663 2.3907266
-3.4021273 -0.082655713 2.1307549
-3.3930645 -0.085457429 2.0887752
-3.1020727 -0.095514558 1.9828842
-2.8144765 -0.07960885 2.2752945
-2.8837211 -0.08941032 2.1126342
-3.0811894 -0.077711493 2.2599759
-1.707508 -0.2283726 3.9718599
-0.65787256 -0.36958262 0.57779753
-1.7864879 -0.026201919 4.3824544
-1.8202401 -0.19203995 3.8778648
-0.3645665 -0.10488299 2.3100085
-1.2700815 -0.14721972 2.6148362
0.58495963 -0.27781904 -0.59761035
-1.6706463 -0.45166901 2.5726297
-0.022853896 -0.59126532 1.0250294
0.50357628 -0.21105717 3.2709212
0.64326817 -0.0095705092 -0.62479997
-0.82401848 -0.052780055 2.5300684
-1.9817328 -0.14502734 4.6186237
-0.70816398 0.028044064 1.9876215
-1.7587502 -0.31129649 2.8112001
0.6117844 0.028838404 -1.2284962
-1.9470787 -0.35797134 1.6143528
0.52229506 0.087419704 -0.75922644
-0.29216424 -0.20686193 2.6103597
-0.39062741 -0.12621695 3.3203082
-0.64378405 -0.16657376 3.8671975
-1.7788818 -0.13764569 3.1745839
-0.087483495 -0.51250917 0.58362365
-0.47746059 0.42131191 3.3222613
-0.39832073 0.22835085 3.1341152
-0.31246147 0.013598572 2.9296875
-0.34496465 0.2555007 3.0110955
-0.41860792 0.26378551 3.1819427
-0.42097744 0.095972806 3.1834092
-1.3600689 -0.38802165 4.232646
-1.8710685 -0.30890647 3.9182611
0.28340843 -0.36802459 2.6489179
-0.36208439 -0.045848303 2.3473382
-0.40638715 -0.046620898 2.2851338
-0.41022819 -0.04402826 1.8506212
-0.47596449 -0.046517506 1.9585307
-0.50638819 -0.050431538 2.4657881
-1.8170307 -0.088480204 1.0962644
-2.1706767 -0.10588934 1.126083
-1.3588539 -0.10825138 0.87665367
-2.3529654 -0.083739661 1.2744267
-1.4486334 -0.11108191 0.8909899
-1.8648608 -0.10316318 1.0477681
-1.9064977 -0.3020125 2.7491078
0.40295607 0.087333798 -0.79638016
-0.023715861 -0.21074684 1.1585401
-0.32684296 -0.55412275 1.7795118
-1.0119205 -0.12953003 0.67897481
-1.0664294 -0.11883495 0.82836652
-0.89442211 -0.49316323 3.1425595
0.25422195 -0.041867509 0.66643476
-0.52039754 -0.28986371 3.2557487
-1.4324223 -0.25412217 3.1093783
0.56306487 -0.23040888 -0.36902726
-1.9677547 -0.56941181 2.8685727
0.19025418 -0.52667755 1.1996891
-2.6045084 -0.19138055 3.7610128
-2.6391907 -0.19074929 3.671649
-2.8211129 -0.19080168 3.5689645
-2.2727284 -0.18710718 3.4125819
-2.3849661 -0.18800627 3.4673998
-2.4667754 -0.19001038 3.6700006
-2.3324094 -0.18776664 3.4644423
-3.085645 -0.15024211 1.8765613
-1.2886635 -0.2386266 2.0804739
0.61926901 -0.23773409 2.0196347
-2.1476159 -0.323872 3.6585793
-2.1299839 1.184441 3.2439637
-1.2888592 -0.087081015 4.3820443
-0.83166444 -0.4387244 0.86781049
-1.6975502 -0.068861566 2.8135841
-1.6288033 -0.078172371 2.3603799
-1.5737363 -0.078399733 2.3882556
-1.738029 -0.076603532 2.206949
-1.3749192 -0.074238509 1.9663007
-2.2762475 -0.075450964 2.0828238
-1.7875035 -0.072362058 1.7653587
-1.4103725 -0.074544996 1.9919901
-2.0864229 -0.073561378 1.8860331
-2.1262286 -0.078510523 2.3938534
-1.7281617 -0.078348093 2.3784611
-2.4478807 -0.074489281 1.9789872
-2.124017 -0.074945644 2.0286944
-1.4856443 -0.070261568 1.5615035
-2.3698916 -0.0747796 2.0090084
-1.4188755 -0.072770998 1.8145292
-1.6170733 -0.075926043 2.1384661
-2.2031879 -0.073542394 1.8823376
-2.8787856 -0.075224295 2.0582397
-3.1196451 -0.076617286 2.1940265
-2.8367584 -0.076054439 2.1381383
-1.5327814 -0.076256022 2.1682634
-2.3738794 -0.072859004 1.8195459
-1.5450988 -0.075386792 2.0846088
-2.5121708 -0.076089174 2.1414139
0.24866933 0.11650844 -0.65273643
-0.46948484 -0.46659124 3.4273887
-0.15656383 -0.25963655 0.71136045
-0.03633222 -0.26541635 0.52053756
-1.9422858 -0.42530555 3.9316666
0.42904532 -0.055580679 2.874599
0.2784214 -0.057672653 2.5835052
-0.26282138 -0.067844011 2.7567737
0.18791661 -0.059259392 2.5628519
0.60592693 -0.054067042 3.7106748
0.2399919 -0.058716003 2.7311339
0.38100219 -0.057484508 3.3860772
0.46329248 -0.055881247 3.3110352
-0.26224995 -0.067082889 2.4166989
1.0255077 -0.047096945 4.0092468
0.18799168 -0.059726879 2.7826107
-0.18424037 -0.06554208 2.3349123
0.63322312 -0.053780992 3.7992246
0.40278462 -0.055938929 2.8200479
-0.0871647 -0.064690851 2.7890205
0.21827218 -0.058892474 2.6185136
0.48689157 -0.055819158 3.4890642
0.35151526 -0.05677747 2.761379
-0.21966141 -0.067837581 3.1624017
0.38811195 -0.05764243 3.541975
0.71478724 -0.052439373 3.8383632
0.47178233 -0.054891121 2.9116218
-0.070903063 -0.062713362 1.9680988
0.70514327 -0.39356419 -1.7472544
-0.57431197 -0.22874123 3.7697933
-0.26007265 -0.21761267 4.0026956
-0.14108199 -0.20560667 4.3208199
-0.40434623 -0.21638066 4.081552
-0.52971733 -0.23549053 3.5581698
-0.56950772 -0.18254119 3.6280079
-0.38768986 -0.036348097 0.40076524
-2.0731432 1.2499174 3.1074715
0.43102822 0.32691485 -0.57649219
0.33888581 0.25385654 -0.27122116
-2.5932338 -0.23332207 1.9919903
-1.6820252 -0.27328002 2.480067
-0.20137452 -0.19213346 1.9840252
-0.28438279 -0.20623215 1.9572799
-0.31495893 -0.10920776 2.3187697
-1.2020984 -0.57449144 1.7281049
-0.20478658 -0.066602558 2.3833871
0.17333509 -0.11564242 2.0442035
-0.088401332 -0.16881683 2.1081569
-0.0011380911 -0.16917822 1.8969747
-2.0278935 -0.19533998 2.9671452
-0.4393366 -0.29771513 0.71623617
-0.33652544 -0.17937487 3.0380201
0.94340461 -0.056879163 -1.9614563
-1.9786611 -0.12633121 4.0578551
0.095570534 -0.20583683 1.8193716
-1.2744377 -0.44411758 1.8897811
-1.2395061 -0.54870445 1.8620863
0.84383017 -0.31041673 2.6111493
-1.2597713 -0.088754833 4.395936
-1.9085252 -0.087419793 3.229857
0.12696698 -0.26058117 0.83019233
-0.24653944 -0.1858665 2.1706903
-0.32684016 -0.18398628 2.4640198
-0.49763501 -0.19675051 2.6036496
-0.35997492 -0.17411114 1.7826848
-1.959892 -0.37113905 2.8662794
-1.2311472 -0.35295776 2.6311998
-0.70316303 -0.16359171 0.41642433
-0.99497938 -0.50351775 3.50737
-0.55453801 -0.29643336 3.377831
-1.3428888 -0.32829973 2.5166287
-1.5316772 -0.30120647 2.8109322
-0.7030834 -0.24493913 3.7451758
-0.83967364 -0.52294165 0.96882367
-1.0657033 -0.21142954 4.0791926
0.59209287 -0.38363767 2.1802356
-0.48164624 -0.29891926 3.3633471
-1.0053344 -0.27460924 4.1070871
-0.098744318 -0.07433942 2.1914098
-1.889873 -0.13757601 1.5128411
-1.0061066 -0.34345752 1.4725796
-0.64144868 -0.39322016 0.53623283
0.56275666 0.093694627 -0.67226171
0.50436026 0.11199112 -0.58195984
-3.0675683 -0.092474937 1.4482181
-2.6585503 -0.097451478 1.3061103
1.1890426 -0.40439743 -2.5070164
0.04523281 -0.43448463 1.4869514
0.34366214 -0.27327669 -1.0544431
-2.3558788 -0.18718794 3.3753371
-2.5497737 -0.1897801 3.5967555
-2.338717 -0.18857279 3.5577157
-2.3163991 -0.18870696 3.5862908
-2.5355191 -0.18805134 3.3783414
-0.46595603 -0.26442689 2.0215049
-0.16406825 -0.22718027 2.0228217
0.84988672 -0.34709498 2.6646318
0.20582163 -0.31828019 -0.34116733
-0.46103349 -0.15671726 0.057932496
-0.79567009 -0.26228613 0.84452099
-1.7912791 -0.15571672 4.7143025
0.48357561 -0.3183606 -0.51253557
0.24997738 -0.23051913 0.49157315
0.26057065 -0.24264766 0.32155681
0.23196721 -0.29002753 1.0277289
-0.53591913 -0.079719484 2.5337799
-1.0340949 -0.27953491 1.3869406
0.033346698 -0.21929611 1.6159465
0.61378103 0.030237474 -0.59435654
0.41615087 -0.13859874 1.1132679
0.29726428 -0.27618518 2.6262307
-0.91512209 -0.075387686 2.8293841
-0.082698166 -0.20576048 -0.37603724
-0.089300185 -0.44470119 1.6826535
-0.45178437 -0.35815388 2.6401925
-0.59339285 -0.21512556 0.92527336
-1.0580388 -0.36725727 4.1911602
-0.5555684 -0.45748797 0.97383809
-1.6642933 -0.12347759 2.2119055
-1.5788094 -0.15775606 2.4118509
-1.639879 -0.165287 3.2805123
-1.5740734 -0.15383855 2.2385063
-1.6314485 -0.16375452 3.144887
-0.53944957 -0.52499402 1.7134974
-0.87007302 -0.51481777 1.6484969
-1.9324138 -0.055456437 4.5384116
-0.061837777 -0.17737581 1.8198643
0.87578225 -0.28795475 2.5755582
-0.13182762 -0.47041199 0.67633164
-0.17596225 0.2008816 0.61065096
-1.0967482 -0.43613213 3.4898319
1.3070904 -0.036581207 3.9221091
-1.4949579 -0.050141871 2.8386745
-1.501983 -0.075478792 3.4883494
0.64581364 -0.21724677 3.185997
-1.9802482 -0.086928189 4.7528262
0.42554712 0.074552812 -0.89312565
-0.10489535 -0.05613628 2.2228575
-0.076449215 -0.073870443 2.5916276
-0.053849995 -0.50050831 0.36050975
-0.4771468 -0.28470638 2.0422311
-1.1093804 -0.22782248 3.2407224
-0.260968 -0.59698558 1.7796541
-0.88218689 -0.44835591 1.4106936
-1.2846063 -0.081547305 4.3111649
0.69682664 -0.17065799 2.9981008
-1.1221404 -0.22306526 4.4204617
0.36000305 0.11281317 -0.63460577
-0.81832761 -0.055404324 3.0184281
-0.71066594 0.033785891 1.8538042
0.17901233 -0.58044624 1.0974269
-2.0231154 0.34588203 3.0267372
-2.0432086 0.032910608 3.0720522
-2.0227509 -0.027989492 3.0295224
-2.0822916 0.53524423 3.1496301
-2.0927114 0.057243586 3.1762469
-2.0864201 0.45539656 3.1591587
-2.0592337 0.38777369 3.1026263
-1.9334096 0.19229825 2.8392494
-1.9100943 0.15552112 2.7904789
-0.81919861 -0.096711606 0.52706462
0.12546955 -0.25877118 0.54976016
1.5768325 -0.064169809 3.2866783
-0.50170952 -0.44785866 1.3931583
-1.3939409 -0.24170494 4.1809082
-1.0607181 -0.15513732 0.92460752
-1.0740336 -0.17073722 1.1225977
-1.7940879 -0.064674728 2.798002
-0.55388141 -0.26878709 0.37048709
-1.9178936 -0.15422276 3.2543864
-1.5982072 -0.056232922 2.6770453
-0.11581016 -0.14892995 2.3825674
0.062966228 -0.12857442 2.1712072
-0.55587655 -0.13193232 0.16980755
-1.8160455 -0.28588769 3.7580664
-3.0310769 -0.11103497 1.7702628
-0.97347808 -0.59412956 1.6364707
-3.0143957 -0.20242554 3.1447408
-1.7082925 -0.37853059 2.5547755
1.461774 -0.085370935 3.5852151
-0.2245003 -0.25092664 2.027987
-0.36798 -0.4816418 1.2343659
-0.45740363 -0.074274838 0.2411359
-0.70999825 0.006916455 1.491173
0.37593263 0.1272621 -1.0087738
-0.030938506 -0.33346808 1.8283472
-0.50862479 -0.22007592 0.50280786
0.40902847 0.16959751 -0.29502273
-0.56306016 -0.25990975 3.6278598
-0.54947299 -0.27116439 3.5995188
-1.5292025 -0.1359635 1.8198462
-0.48428863 -0.22229858 0.48122674
-3.2970617 -0.13324356 1.1833284
-0.7611798 -0.57985818 1.3630499
-2.0202947 1.1631609 2.971174
-1.7149304 -0.14619543 3.8336477
-0.53633815 -0.25058582 1.5939305
-0.2732287 -0.25291708 0.97351676
-0.35920101 -0.24808532 1.2675825
0.014988378 -0.22702985 1.5894207
-1.0511143 -0.56441551 1.4466875
-2.0333536 -0.097775124 4.0489049
-0.48517373 -0.23051943 0.64797121
-0.23501445 -0.25737429 0.61463398
-2.0822189 -0.15456685 3.5087419
-0.9052965 -0.18316013 3.3109987
-0.3645581 -0.11420919 2.9648521
-0.8377198 -0.17599086 3.2609315
-0.24519184 -0.12477198 2.7672629
-0.40864435 -0.12002602 2.9922137
-0.28206348 -0.13412981 2.7690811
-1.4820579 -0.29036513 2.0241642
-0.35761717 -0.081355028 3.1279736
-1.5700781 -0.30706701 2.5063288
-2.1240482 -0.36794037 3.7814825
0.0084665911 -0.21158086 1.2764617
0.17632698 -0.18774213 1.2225999
-1.758274 -0.29523218 1.2653149
-1.2954742 -0.19014171 2.751791
-0.99883115 -0.26484749 3.108747
0.2384347 -0.29163715 0.96673071
-1.0259378 -0.053272374 2.3127904
1.5097497 -0.090362705 3.4746675
0.27512819 -0.10342804 -0.95907629
-1.0254028 -0.6054979 1.6022331
0.87083083 -0.30542108 -1.208553
-0.95230222 -0.61086464 1.5011075
-2.1061244 -0.13730079 1.3207358
-1.7518635 -0.14710049 1.1599681
-1.3122905 -0.15501404 1.1499574
-1.0810841 -0.15828359 1.1885775
-1.347957 -0.15154667 1.2802335
-2.9161537 -0.11834021 1.5374382
-3.0418603 -0.11505444 1.5817523
-1.8619584 -0.14352998 1.2322426
-0.99670088 -0.16241422 1.0690751
-1.3448006 -0.15740842 1.0164138
-2.4307089 -0.1303315 1.3805439
-1.0805082 -0.15459862 1.3520026
1.0581732 -0.27072096 -1.6098911
-0.099401586 -0.0068820328 1.0632155
-2.1403136 -0.11839972 3.81269
-0.24728526 -0.33081716 2.261826
-0.53918231 -0.52708805 0.90878862
-1.4086361 -0.27672976 1.7844883
-1.9569976 -0.31285167 2.7927001
0.84651971 -0.012646161 -1.8011497
-2.12288 -0.42328626 3.8536747
-0.80209291 -0.2227494 3.8455291
-0.82507724 -0.038852952 3.5141459
-3.2309015 -0.10400739 1.503011
-2.6617455 -0.12582704 1.3723519
0.1506843 -0.18583466 -0.81831503
-1.4377491 -0.26768896 2.3739495
0.57917678 -0.27113664 2.2380967
0.22550115 0.2035301 -0.31891096
-0.46334618 -0.53930855 2.3143544
-0.7518732 -0.33222139 3.1256704
-0.31662619 -0.53059661 1.7420387
0.53313541 -0.38382336 -0.97418928
-0.16123939 -0.13718179 -0.28371215
-2.0396142 0.70600772 3.0120711
-1.9106755 0.0042515211 2.695276
-1.9376616 0.37143075 2.7569251
-2.018826 0.54546523 2.9621911
-1.9928048 0.55188787 2.8951099
-2.0476336 0.77390838 3.0314312
-2.06532 1.0707917 3.0705304
-1.9275894 -0.0020624585 2.7389369
-2.0756505 -0.044989981 3.1215
-0.69265878 -0.17302087 2.5229335
-0.84235579 -0.32949531 2.7666698
0.13751446 -0.24307348 0.71570045
-2.1208193 -0.335466 3.7224317
-0.71736348 -0.087942809 3.455925
-0.44082046 -0.23174031 0.54653454
-0.13823985 -0.25190577 2.0964508
-1.9855444 1.1063763 2.9100621
-1.9753976 -0.28842509 3.6894732
0.92843986 -0.45055348 -2.0415928
-0.65706611 -0.53611493 3.0269523
0.4627322 -0.1361887 2.0660398
0.22524984 -0.15308145 1.601685
0.18568404 -0.15974683 1.4059699
0.76767588 -0.11254952 2.7235315
0.19310659 -0.15144782 1.6585898
0.31780636 -0.12989779 2.2889068
0.0044870824 -0.14862923 1.7829944
0.81640214 -0.10935532 2.8128421
0.51260495 -0.13825256 1.9932588
0.489876 -0.14325157 1.8469055
1.0821036 -0.097003922 3.13187
0.31828338 -0.14664879 1.7774203
0.67674738 -0.12924248 2.2328928
