# .PCD v0.7 - Point Cloud Data file format
VERSION 0.7
FIELDS x y z
SIZE 4 4 4
TYPE F F F
COUNT 1 1 1
WIDTH 1376
HEIGHT 1
VIEWPOINT 0 0 0 1 0 0 0
POINTS 1376
DATA ascii
0.74860001 -0.28086549 -0.25833157
0.90890002 -0.49076873 -0.50472414
1.1773 -0.28241009 -0.45112881
0.91470003 -0.48735219 -0.55519766
0.73409998 -0.29349047 -0.23395352
1.2108999 -0.28098434 -0.36304301
0.75490004 -0.29433489 -0.18251874
1.2011 -0.27859646 -0.27062431
0.69050002 -0.29573363 -0.20165232
0.65000004 -0.29229474 -0.25801137
0.6214 -0.27528 -0.2911604
0.6573 -0.29771441 -0.19905683
0.75740004 -0.24159402 -0.70276403
0.69690001 -0.51532418 -0.50194597
0.85589999 -0.19144523 -0.74357587
1.0304 -0.18948132 -0.74262035
0.58719999 -0.26409513 -0.5072003
1.2412 -0.24736589 -0.59401417
1.0038 0.037872255 -0.230663
1.0072 -0.09265095 -0.097403616
0.79220003 -0.30541235 -0.069018006
0.6031 -0.24464098 -0.57779461
0.58810002 -0.28115475 -0.25553939
0.68010002 -0.51846474 -0.54920936
0.72100002 -0.29747927 -0.090974003
0.85280001 -0.11497274 -0.069861323
1.2868999 -0.27468878 -0.24729127
0.69840002 -0.22184813 -0.71684921
0.54540002 -0.26822597 -0.46995175
0.83880001 -0.26206982 -0.024007827
1.1134 -0.13405591 -0.080841899
1.2979 -0.26122427 -0.56609654
0.67930001 -0.29735768 -0.09166339
0.59310001 -0.47596145 -0.49886385
0.579 -0.2827751 -0.20200747
0.64920002 -0.28455234 -0.11072937
1.1588999 -0.24447656 -0.06274125
0.7432 -0.1131373 -0.076239467
0.7992 -0.3415935 -0.020463139
0.89289999 0.023881078 -0.69839847
0.80050004 -0.17988402 -0.79474568
0.54430002 -0.38532037 -0.28731021
0.82890004 -0.16972458 -0.80341315
0.70530003 -0.31390786 -0.050207436
1.1422 -0.17452702 -0.76293206
1.1237999 -0.18204236 -0.028682262
0.94550002 -0.15333375 -0.82438552
1.2428999 -0.056422055 -0.17732674
0.96490002 -0.19826519 0.033952266
0.51139998 -0.39055121 -0.28701407
0.62940001 -0.27983689 -0.068366975
0.5485 -0.32426447 -0.16769069
0.5923 -0.083536595 -0.16464242
0.67750001 -0.32870543 -0.027329475
0.77000004 -0.17199847 -0.8256458
1.1279 -0.14548835 -0.81071556
0.67940003 -0.27045614 -0.011575222
0.62650001 -0.10015213 -0.093446076
1.0676 0.15932488 -0.27332103
1.2793 -0.012679756 -0.21520644
0.51160002 -0.28789389 -0.18737406
0.8075 0.1494799 -0.58547288
1.0411999 -0.003148675 -0.7840941
0.76230001 0.1377545 -0.59038359
0.78839999 0.18718532 -0.33745751
1.4267 -0.28513932 -0.37403145
0.61970001 -0.33087718 -0.023650676
0.73300004 0.016735926 -0.75865471
1.3649 -0.22755679 -0.65337622
0.75700003 -0.25451571 0.060995311
0.43420002 -0.26606941 -0.45799559
0.7633 -0.18278295 0.060747832
0.98040003 0.21257688 -0.53444093
0.82179999 0.21159093 -0.50120723
0.73500001 -0.1691364 -0.86433661
0.69630003 -0.15812665 0.033210963
0.50059998 -0.079238445 -0.20744634
0.53979999 -0.32379431 -0.07764098
0.58350003 -0.18116879 -0.78573179
0.42450002 -0.30123651 -0.28273979
0.57380003 -0.34544688 -0.028555214
0.75209999 0.22011369 -0.40730062
0.52359998 -0.27541244 -0.74304855
1.4168999 -0.24005413 -0.62684327
0.77149999 -0.21252388 0.099268585
0.4982 -0.24313381 -0.73664618
0.62599999 -0.1589272 -0.84852356
0.56650001 -0.12537521 -0.01777643
1.4854 -0.29655993 -0.47799405
0.50580001 -0.21730667 -0.7593056
1.4053999 -0.2048088 -0.69830871
0.5934 -0.27738279 0.041528761
1.1966 -0.10291976 -0.87418783
0.85299999 0.0054737329 -0.89000583
0.52609998 0.0071251094 -0.67881054
0.4939 0.060213506 -0.28480601
0.58030003 -0.1646719 -0.83552361
0.61760002 0.19727325 -0.44361857
0.48700002 -0.19094235 -0.75161064
0.37350002 -0.25658345 -0.51927942
0.36240003 -0.27347296 -0.3768484
0.54509997 -0.45016921 -0.023767322
0.59650004 -0.15505365 -0.86185336
1.303 -0.12154922 -0.83015382
1.2988 0.12753695 -0.62457734
1.2738999 -0.018422008 -0.80861884
0.93790001 -0.013266474 -0.93402886
0.52160001 -0.21335971 -0.82776022
0.3644 -0.36222011 -0.25764829
0.50770003 0.10697334 -0.57590878
0.43010002 -0.26252162 -0.73092598
0.41280001 -0.33004379 -0.11245513
0.47280002 -0.18283725 -0.78663528
0.70140004 -0.1833078 -0.96248853
0.3872 -0.08767876 -0.20852843
0.45290002 -0.30461925 -0.030901194
0.48650002 -0.17471927 -0.81251884
0.46810001 -0.38506877 -0.019802511
1.022 -0.057501048 -0.97858703
1.1984999 -0.053415418 -0.92516601
1.2551 -0.047026992 -0.89113969
1.4684999 -0.013317257 -0.21734969
0.33900002 -0.44226652 -0.51373875
0.4598 -0.20699719 -0.8137424
0.58609998 -0.18762439 0.11239168
0.30170003 -0.27176404 -0.41878885
0.65750003 -0.17514652 -0.96846211
0.3973 -0.35532403 -0.7384553
0.4404 -0.41708118 -0.028290331
1.4223 0.0038281083 -0.72691381
0.36380002 -0.29005319 -0.7176044
1.3697 0.1889835 -0.27855033
0.38320002 -0.19293979 -0.74373782
1.3908 0.13585596 -0.62107956
0.8811 -0.029208332 -1.0169569
0.36320001 -0.34078956 -0.73680639
1.4596 0.0932284 -0.23247808
0.42990002 0.16016072 -0.46925253
0.4095 -0.38832754 -0.0018963516
0.7349 0.0043772161 -0.98514152
0.58140004 -0.11868823 -0.95982707
0.32090002 -0.33552021 -0.12804288
0.25839999 -0.2687189 -0.4734911
0.30510002 -0.38516557 -0.17416438
1.3911999 0.19967061 -0.57469356
0.3838 -0.00127244 -0.70547384
0.36750001 -0.30609524 -0.022530317
1.4112999 0.21231978 -0.34236753
0.4456 -0.2175678 -0.88739693
0.38320002 -0.45058155 -0.030643374
0.26610002 -0.40509599 -0.5293209
0.6584 -0.081076533 -1.0101606
0.28 -0.22816738 -0.62860596
1.4238 -0.055184424 -0.85754585
0.28530002 -0.49980241 -0.56521177
0.2832 -0.52145535 -0.51785225
0.32080001 -0.19191501 -0.74782193
0.2626 -0.46719682 -0.29057756
0.32320002 -0.29576433 -0.047719061
0.34910002 -0.447568 -0.77045953
1.4536999 -0.051827222 -0.83512223
0.37040001 -0.17131534 -0.82836854
0.2836 -0.29553556 -0.11063516
1.5863999 -0.17581749 -0.12963498
1.5515 0.04327181 -0.22615692
0.2976 -0.59356099 -0.28341159
1.6529 -0.29012662 -0.32962281
0.2342 -0.41051733 -0.27398315
1.4837999 0.19433036 -0.36127868
0.51800001 -0.30803299 -1.0003216
0.31940001 -0.64499617 -0.28770852
0.41440001 -0.15269563 -0.90114081
1.4398999 0.24901639 -0.39154232
0.32590002 -0.14049464 -0.018411517
0.31420001 0.091427192 -0.56260622
1.6566 -0.28103459 -0.55740452
1.5332999 -0.030354768 -0.76340401
1.6493 -0.24874926 -0.21184847
1.5144 0.16768503 -0.26544973
0.28560001 -0.12682515 -0.071748137
0.23809999 -0.062171102 -0.23743828
0.4727 -0.28623378 -0.99495471
0.21779999 -0.47957569 -0.49564254
0.37580001 -0.22970116 -0.91014957
1.6195999 -0.23389089 -0.08879891
0.44250003 -0.13872719 -0.97056997
0.23909999 -0.34426379 -0.10206655
0.2159 -0.40672761 -0.18202808
0.18619999 -0.24720597 -0.5690065
0.59729999 -0.061231554 -1.0610882
0.3328 -0.66829169 -0.13889292
0.44 -0.20987117 0.17924425
0.4122 0.01408723 -0.89336109
0.63260001 -0.045627832 -1.0770206
1.5713999 -0.12254304 -0.81184828
0.26890001 -0.39710802 -0.78136289
0.26280001 -0.41574955 -0.033538818
0.1679 -0.37056005 -0.28694153
0.31390002 -0.53231645 -0.80581307
1.5628999 0.13579769 -0.62362844
0.18609999 -0.28344822 -0.16882017
1.5534999 0.19860056 -0.31351149
0.3292 -0.15084118 -0.89553356
0.3028 -0.57899779 -0.034298122
0.33250001 -0.67242467 -0.075142056
0.30600002 -0.19875345 -0.89331985
0.16069999 -0.43079954 -0.53385311
0.17290001 -0.47774279 -0.56132209
0.16760001 -0.39702702 -0.19961071
0.44080001 -0.26862627 0.23316059
0.2437 -0.47269922 -0.035355657
0.1621 -0.49615848 -0.27202484
0.1744 -0.29792219 -0.11034521
0.48300001 0.022578984 -1.0221429
0.14650001 -0.43607014 -0.56961161
0.2193 0.11615832 -0.5105204
0.33140001 -0.26339477 0.15396592
1.7405 -0.25064659 -0.23391315
0.39970002 -0.27601331 0.22495314
1.714 -0.21467134 -0.67923152
1.7031 -0.21688393 -0.094837457
0.2201 -0.49111527 -0.78839386
0.1089 -0.28841382 -0.25986564
0.1043 -0.37535095 -0.49645644
0.1305 -0.48632205 -0.27079812
0.2676 -0.64120859 -0.044861466
1.6263 0.19845609 -0.51885617
0.1769 0.020893455 -0.64632618
0.175 -0.17755258 -0.77514297
0.33080003 -0.53032041 -0.94843316
0.36020002 -0.38042969 -1.0256784
0.2244 -0.16270661 -0.86624908
0.3053 0.012723655 -0.90923905
0.2058 -0.29781419 0.041073948
0.2418 0.0029918253 -0.82525307
0.21069999 -0.48512536 0.0028672516
1.6296999 0.22693928 -0.43737224
0.3427 -0.10899201 -1.0084825
0.1798 -0.41753566 -0.7962361
0.45580003 0.026339486 -1.0567153
0.1374 -0.33814752 -0.73278654
0.1857 -0.66839695 -0.22928442
0.29699999 -0.54254603 -0.92632008
0.24159999 -0.63107288 -0.015962332
0.13869999 -0.3829084 -0.064303428
0.152 -0.42637134 -0.76570654
1.6812999 0.16297509 -0.26810801
0.093600005 -0.34980375 -0.15818109
0.2827 -0.15515208 -0.98626053
1.6293999 0.25437492 -0.30733249
0.064300001 -0.25589246 -0.54911268
0.1857 -0.68572903 -0.18684945
0.1754 -0.28482586 -0.86818433
1.8269 -0.30482006 -0.39141303
1.6873 0.16001326 -0.61296141
0.069300003 -0.46235478 -0.54550976
0.35500002 -0.088249743 -1.0639229
0.1106 0.080143377 -0.35003623
0.090599999 -0.30052096 -0.094455093
0.32480001 -0.46934599 -1.0391228
0.44800001 0.011843964 -1.1115656
1.8211 -0.24706018 -0.22891444
0.1584 -0.1633327 -0.86960888
1.8369 -0.26990521 -0.29803148
1.7601 -0.03837657 -0.71272707
0.063199997 -0.27920681 -0.11973801
0.3258 -0.27086747 0.27927193
0.0766 -0.27772909 -0.73970002
0.052200001 -0.48318249 -0.23043984
1.6617999 0.28862929 -0.33977717
0.010900002 -0.28290212 -0.36541203
0.036700003 -0.29573125 -0.18438965
0.1164 -0.51544368 -0.028473586
0.034299999 -0.35258645 -0.17349698
0.12289999 -0.57394195 -0.043967098
-0.0033 -0.26347679 -0.47673002
1.8329999 -0.21371484 -0.6742903
0.182 -0.2673347 -0.97486782
0.0814 -0.1812768 -0.81276119
0.2062 -0.36680269 -1.0096688
0.1384 -0.65085971 -0.046563208
0.25409999 -0.42819577 -1.0548156
0.079899997 -0.62283236 -0.16001993
1.7973 -0.068487972 -0.75560737
0.0537 0.10393631 -0.46251342
0.1617 -0.56884706 -0.89521468
0.21169999 0.013989583 -0.97055078
1.823 0.037328944 -0.22182304
1.841 -0.027062207 -0.20677584
0.23369999 -0.5147655 -1.0239798
-0.023399998 -0.33645493 -0.51721764
0.1391 -0.50539941 -0.90606189
-0.024500001 -0.36894971 -0.49532774
0.21089999 -0.2486808 0.23809907
0.17039999 -0.18499842 -0.99781895
0.2402 -0.068343997 -1.0530005
0.057100002 -0.45161927 -0.78549141
0.1962 -0.41881269 -1.0227998
-0.012199998 -0.23521736 -0.62893516
0.2485 -0.48082542 -1.0667357
0.035100002 -0.0018979609 -0.66334236
-0.0123 -0.50399894 -0.49994901
0.1953 -0.47748148 -1.0148671
0.19399999 -0.34467292 -1.0430329
0.064900003 -0.54005367 -0.04266265
-0.045700002 -0.27885717 -0.43730178
-0.0319 -0.41612589 -0.53126574
0.1473 -0.14213526 -0.98406684
1.8058 0.16602108 -0.27559277
1.9186 -0.31922477 -0.45944801
0.12819999 -0.29448903 0.16676083
1.8994 -0.24140173 -0.19593078
0.010499999 -0.36583054 -0.060378283
1.8271999 0.13994884 -0.30740345
1.9238 -0.30755156 -0.37189078
0.12270001 -0.5719589 -0.90348065
0.3154 -0.04460746 -1.1542163
1.9111999 -0.26726663 -0.61072379
0.028100001 -0.23491031 -0.83684039
1.7513 0.29900351 -0.51148432
0.1508 -0.39616877 -1.0251027
1.8197 0.15629955 -0.6166625
-0.032000002 -0.49761701 -0.22171377
-0.0055999979 -0.39956051 -0.75478494
-0.042299997 -0.074139416 -0.23924398
-0.0082999989 -0.19698608 -0.76455677
1.8297 0.17971453 -0.53119814
0.0040000007 -0.24082077 -0.80792749
0.056000002 -0.13811406 -0.89400029
0.19949999 -0.49269569 -1.0719767
-0.064600006 -0.26344693 -0.22063416
0.17030001 -0.2451607 0.26593325
-0.078700006 -0.34797329 -0.49162903
0.018400002 -0.5368678 -0.044030219
0.16779999 -0.29238909 0.27060309
-0.025099996 0.05157128 -0.57095397
-0.001199998 -0.43699515 -0.015554875
0.13959999 -0.35518253 -1.0531111
-0.074000001 -0.42971623 -0.53366214
1.8787999 0.044953659 -0.66990638
-0.090200007 -0.32264608 -0.27707139
-0.013500001 -0.31497777 0.0042338371
1.9101 0.0096456409 -0.21685472
-0.0845 -0.4040454 -0.26461703
0.067400001 -0.2801196 -0.97549736
0.132 -0.50161594 -1.0254183
0.040399998 -0.28928125 0.12513277
0.033399999 -0.69440472 -0.089273542
1.9076999 -0.14381242 -0.75629783
0.083399996 -0.20112148 -1.0088868
0.023300001 -0.55875975 -0.84012616
0.084399998 -0.20881927 0.20379993
0.084299996 -0.46500063 -0.99235785
-0.0757 -0.0026621819 -0.28583997
-0.11130001 -0.3386215 -0.51759964
-0.10350001 -0.41973579 -0.28850454
0.0933 -0.43835753 -1.0213721
1.8698 0.208738 -0.39691827
0.10330001 -0.34441388 -1.0548677
0.051400002 -0.13152069 -0.96940088
1.9500999 -0.19206238 -0.68306375
-0.00050000101 -0.17357543 0.079938173
-0.023600001 -0.011860639 -0.78075612
-0.030700002 -0.67115742 -0.21017347
0.013900001 -0.5988028 0.012371778
-0.021199998 -0.67225802 -0.16822731
1.8058 0.33006752 -0.36689347
-0.077299997 -0.58165073 -0.2824285
1.9957999 -0.32515264 -0.47247529
-0.075599998 -0.30011398 -0.74923193
1.9139999 0.051632985 -0.66862714
0.1561 0.024871528 -1.0737286
-0.124 -0.27951533 -0.25504723
1.8780999 0.20682216 -0.55190557
-0.11580001 -0.43914455 -0.26654115
-0.0095999986 -0.27450085 0.10407946
0.093900003 -0.49625379 -1.0397042
-0.1407 -0.25916249 -0.4862251
-0.058900002 -0.15464896 0.0060015023
-0.068199992 -0.018456578 -0.72434449
1.8946999 0.20764834 -0.52606958
-0.024 -0.0073439181 -0.83458972
-0.043400001 -0.44159991 0.030139714
0.1113 -0.28051567 0.29828539
-0.002299998 -0.23284146 -0.95568669
0.027600002 -0.30284327 -1.0049914
2.0121 -0.30788225 -0.54162687
-0.075800002 -0.59523475 -0.15586452
-0.11580001 -0.30419117 -0.11855856
-0.065400004 -0.671148 -0.22520009
1.9674 -0.15724835 -0.73135191
0.1109 0.022249222 -1.0605843
-0.1419 -0.40271306 -0.26468673
1.9484999 0.026154995 -0.67616582
-0.0047999993 -0.13797191 -0.95469773
-0.032599997 -0.48169744 -0.88096488
-0.14650001 -0.42735267 -0.53324533
-0.077600002 -0.18071714 -0.8286047
0.046 -0.44643486 -1.0366061
0.055300001 -0.28545672 0.25892958
-0.1348 -0.26850313 -0.13034043
0.037300002 -0.53903979 -0.99860954
-0.1284 -0.29430521 -0.7182526
-0.028599996 -0.58152264 -0.8601836
1.8515999 0.34405768 -0.4053483
-0.131 -0.12525266 -0.13595048
-0.097800002 -0.43454713 -0.78095794
-0.074499995 -0.50747097 -0.80620462
0.1196 -0.062521398 -1.1303647
-0.081100002 -0.55116534 -0.049902171
2.0409 -0.27517772 -0.30556142
0.0025000013 -0.17896378 -1.0084321
1.9523 0.15854105 -0.28615206
-0.1692 -0.26141649 -0.24078776
1.9995999 -0.16603407 -0.71665424
0.2332 -0.0052445531 -1.2334852
1.9476999 0.16974676 -0.5604738
-0.082000002 -0.54554212 -0.020174086
0.078400001 0.0062934011 -1.0772074
0.0012999997 -0.080698758 -1.0013613
0.11740001 -0.27612674 0.36668673
-0.1125 -0.152004 -0.011302084
1.9751999 0.14720434 -0.45336094
1.984 0.11908948 -0.30255193
-0.08160001 -0.22138739 -0.90259111
1.8899 0.34005642 -0.3521347
2.0530999 -0.23621058 -0.19024289
-0.045600001 -0.29737204 0.17965612
-0.18100001 -0.48170483 -0.26876551
0.029200001 -0.089914441 -1.0792447
0.006099999 -0.36320204 -1.0692488
0.094599999 -0.30652118 0.37148163
-0.12620001 -0.23444724 -0.83889115
-0.16330001 0.059140787 -0.37546968
-0.045799997 -0.35749197 -0.9979744
-0.12360001 -0.48643035 -0.79883903
0.18529999 -0.0081238151 -1.2350084
-0.17290001 -0.12737262 -0.13429341
-0.014400002 0.010829359 -0.99293959
-0.1727 -0.52521753 -0.20454574
-0.095500007 -0.3066538 0.12633428
2.0920999 -0.30721945 -0.35822552
2.0176001 -0.095520973 -0.78139329
2.0409 0.023003101 -0.22292748
-0.1436 -0.45265216 -0.0079583526
-0.1231 -0.460388 -0.85669589
1.9812 0.20492411 -0.24629219
2.0232 0.13339426 -0.41132036
-0.15710001 -0.58109128 -0.13356987
-0.1904 -0.26899642 -0.095293611
1.9204999 0.34049961 -0.49746564
-0.024100002 -0.31208551 0.26540384
-0.21190001 -0.46535081 -0.55385679
-0.24300002 -0.28931999 -0.36126345
1.9414999 0.32212651 -0.52629405
-0.0231 -0.41541469 -1.0818062
-0.09300001 -0.44028503 -0.96840203
-0.10620001 -0.27571559 0.15819058
1.9440999 0.34122992 -0.32826835
-0.1073 -0.67253 0.00089481473
-0.22399999 -0.49913001 -0.27072102
-0.12470001 -0.22072089 -0.94207513
0.024500001 0.016755641 -1.1163859
2.0816 -0.017777443 -0.21508989
-0.1346 -0.65993661 -0.042883426
-0.2131 -0.30650806 -0.074897587
-0.1821 -0.28833205 -0.83793354
-0.1569 -0.5468412 -0.82076234
-0.1693 -0.13545054 -0.86073232
-0.186 -0.16110086 0.015525818
2.0692 -0.096608043 -0.7671659
-0.18890001 -0.23301733 -0.8458485
-0.2395 -0.018471211 -0.28832293
-0.2527 -0.46201205 -0.28946024
2.076 0.11823447 -0.3691116
2.0474999 0.19607297 -0.41032115
-0.26249999 -0.2552678 -0.22325367
-0.1937 -0.34667856 0.029106945
-0.1592 -0.58321857 0.023040026
-0.22829999 0.057439983 -0.52534193
-0.16230001 -0.33998144 0.11609134
0.074200004 -0.00062042475 -1.2234296
-0.092700005 -0.22939426 0.25368497
2.0767999 0.14255068 -0.50931919
-0.013299998 0.013881341 -1.1236961
2.0904999 0.10073404 -0.28771389
1.9904 0.34174299 -0.51257932
-0.25669998 0.023206294 -0.34443823
2.0674 0.15872256 -0.60506558
2.0783999 0.11265898 -0.63867503
-0.25189999 -0.18006542 -0.72461164
-0.065300003 -0.085480213 -1.101513
-0.2647 -0.44886971 -0.17625836
-0.1832 -0.5547694 -0.84663212
2.1027 0.11015148 -0.34169871
-0.28259999 -0.44053006 -0.52358687
-0.2359 -0.19558764 -0.78918815
-0.1989 -0.17565024 0.073276788
-0.1118 -0.13393599 -1.0501469
-0.21100001 -0.34444433 0.057323575
-0.12380001 -0.30756521 0.23746434
2.1689 -0.33212173 -0.47441491
-0.27399999 -0.38001043 -0.1365985
-0.1727 -0.4322359 -0.9484005
-0.24660002 -0.026681155 -0.71513277
-0.26859999 0.048693702 -0.3939648
2.033 0.29143259 -0.55089778
-0.0031000003 -0.2720536 0.4144192
-0.010899998 -0.04641366 -1.1877393
2.0871999 0.18926169 -0.52717924
-0.2886 -0.053334773 -0.26278901
2.1327999 -0.085670471 -0.72035551
-0.18800001 -0.54320276 -0.90013635
-0.2753 -0.21010941 -0.74138355
-0.20690002 -0.57708347 0.026254147
-0.1733 -0.32744169 0.18664065
-0.2604 -0.43396026 -0.76816165
-0.17480001 -0.20608777 0.18427768
-0.039900001 0.0042901486 -1.1528039
-0.1505 -0.39388782 -1.0351595
-0.2782 -0.36685818 -0.07700938
-0.2142 -0.26252586 0.11218199
2.1373 -0.042081952 -0.69804752
-0.015800003 -0.32537568 0.42197463
-0.22610001 -0.70192116 -0.15375844
-0.118 -0.077273905 -1.0754927
-0.32779998 -0.29094279 -0.36703292
-0.23720001 -0.39933258 0.049574584
-0.23439999 -0.42923522 -0.86521566
-0.31569999 -0.34650451 -0.21893111
-0.08860001 -0.052011788 -1.1202866
-0.3247 -0.30698603 -0.26222652
2.1066999 0.1791576 -0.24585992
-0.18270001 0.00084361434 -0.94321823
-0.14660001 -0.34986818 -1.0780673
-0.31689999 -0.49344975 -0.28911412
2.1413999 0.13100944 -0.48129758
-0.31869999 -0.51839542 -0.50929081
-0.3355 -0.41237974 -0.5029856
-0.2097 -0.13826904 -0.96683371
-0.2343 -0.010916114 -0.86212838
2.1545 0.10912953 -0.3589381
2.1294999 0.18657164 -0.45951843
-0.24820001 -0.49578428 0.043737262
-0.28689998 -0.30911148 -0.0094554722
-0.048800003 -0.041364312 -1.2019787
2.1348 0.14986193 -0.58763945
2.2207 -0.31657535 -0.36160144
-0.1717 -0.50469244 -1.0287024
-0.2235 -0.21195906 0.16171536
-0.31779999 -0.30546278 -0.72235239
-0.18880001 -0.3064481 0.23055324
-0.30899999 -0.26995808 -0.054135323
-0.26789999 -0.25498384 0.068833083
-0.18350001 -0.085748434 -1.0308867
-0.34819999 -0.34873295 -0.24775597
-0.32509997 -0.5681172 -0.27222338
-0.10260001 0.0080921352 -1.1392375
2.2128 -0.17174304 -0.19766094
-0.3556 -0.40749538 -0.28766629
2.152 0.14365403 -0.61462748
-0.35189998 -0.30516732 -0.18097636
2.1663001 0.1520988 -0.33196679
2.1464999 0.18886104 -0.24272735
-0.054599997 0.0029134303 -1.2215879
-0.26169997 -0.24411941 -0.95046568
-0.28329998 -0.55225211 -0.82405198
-0.3353 -0.30956924 -0.051777899
2.2412 -0.24790201 -0.24256805
-0.2219 0.0045463741 -0.97688675
-0.2834 -0.70223063 -0.12954432
-0.28659999 -0.26099777 0.10351565
-0.31459999 -0.55357194 -0.068502635
-0.36149999 -0.52113652 -0.51678061
2.1798999 0.14202777 -0.56221354
-0.043999996 0.033427 -1.2443349
-0.266 -0.35390216 0.15415224
-0.29699999 -0.16275778 -0.90108728
-0.3301 -0.16403979 0.0010962486
-0.34199998 -0.31032968 -0.021550745
2.1225998 0.31072909 -0.54688603
-0.25329998 -0.30199724 0.20300773
-0.34529999 -0.15079433 -0.76737851
-0.35799998 -0.14580458 -0.086772114
-0.1539 -0.053574681 -1.1534619
2.2110999 0.10644166 -0.27574086
2.1508 0.2649976 -0.56683022
-0.036199998 -0.3022542 0.5211972
-0.2095 -0.13299835 -1.0975037
2.2344 0.021785617 -0.22984396
-0.14650001 0.0061427206 -1.1610068
-0.38799998 -0.028448462 -0.30257192
-0.41529998 -0.28523415 -0.47254455
-0.29389998 -0.32274365 -0.97793603
-0.19750001 -0.078653932 -1.1264058
-0.21609999 -0.049656272 -1.0944855
-0.42209998 -0.29824954 -0.2979522
-0.34759998 -0.33504891 -0.86150396
-0.39019999 0.032394454 -0.54742658
2.175 0.27094644 -0.23718923
2.2454 -0.021290869 -0.69387376
2.2395 0.12421758 -0.50036669
-0.25639999 -0.23326689 0.27391997
0.034600001 0.014138103 -1.4015731
2.2877998 -0.13967115 -0.22003156
-0.29899999 -0.34215957 0.19927689
-0.36859998 -0.23256585 -0.84840906
-0.32459998 -0.1144219 -0.9396801
2.2037001 0.22594762 -0.23710188
-0.3653 -0.13121867 -0.83866215
-0.39669999 0.0046129972 -0.6231004
-0.228 0.0093667507 -1.0963649
-0.2701 -0.10675174 -1.061499
2.1564999 0.36190298 -0.50597829
-0.40459999 -0.26718801 -0.04623428
-0.4059 -0.38852447 -0.74999583
-0.4059 -0.24854389 -0.77506936
-0.40099999 -0.1992895 -0.79065323
-0.35189998 -0.67837775 -0.060960352
2.2107999 0.25271058 -0.56970757
2.2718 0.077444807 -0.26044372
-0.2377 -0.076610088 -1.1339658
0.1093 -0.57508087 0.68003428
0.2053 -0.59513271 0.7425015
-0.26119998 -0.071635842 -1.1051645
-0.28059998 0.0025254637 -1.0541109
-0.37849998 -0.40883076 -0.8916744
-0.34989998 -0.0061560869 -0.91561437
-0.37549999 -0.52064633 0.049406111
-0.3777 -0.28649145 0.10815927
2.1947 0.34908175 -0.31002778
-0.32269999 -0.30381149 0.23690769
-0.32419997 -0.22933841 0.23897108
2.2855999 0.10905786 -0.24969083
2.3267999 -0.25561672 -0.64857584
-0.30509999 -0.36815155 -1.0866729
-0.45190001 -0.54364425 -0.28547502
-0.43879998 -0.32074946 -0.75947082
-0.42559999 -0.65512943 -0.25730628
-0.44859999 -0.18939257 -0.72930253
-0.4831 -0.27266133 -0.53866583
-0.45599997 -0.25468862 -0.7229445
-0.38779998 -0.012435466 -0.87366748
-0.3572 -0.30766892 0.19946906
2.3097999 0.1004032 -0.41713756
-0.2485 -0.33241254 0.39047417
-0.45819998 -0.1441921 -0.11319354
-0.47499996 -0.12412143 -0.20744011
2.3476999 -0.15827167 -0.21762496
-0.45669997 -0.60866058 -0.26688248
-0.3651 -0.11173069 -0.99870956
-0.37349999 -0.36028028 0.19435552
2.369 -0.3353774 -0.5164184
-0.1566 -0.28840667 0.53998709
-0.44219998 -0.36091703 0.030962616
-0.48979998 -0.23839042 -0.66046518
-0.43699998 -0.30805951 0.05713895
-0.30749997 -0.045384526 -1.1187118
-0.36289999 -0.18300134 -1.0494566
-0.47289997 -0.16093975 -0.74093854
-0.3712 -0.36309302 -1.0353143
-0.33669999 -0.41180217 -1.0971115
-0.42829999 -0.46713632 0.060364544
-0.50659996 -0.43908876 -0.53176075
-0.48299998 0.016750962 -0.56754875
-0.49739999 -0.0081577003 -0.35545185
2.2684 0.28640622 -0.24654683
-0.42199999 -0.55002278 -0.87239933
2.375 -0.22143772 -0.18245938
-0.3809 -0.28117377 0.23176047
2.3646998 -0.18975911 -0.69900596
-0.52090001 -0.25530303 -0.22650924
-0.41209999 -0.36831838 0.16968492
-0.52579999 -0.33453161 -0.26667738
-0.42879999 -0.31528914 0.13902757
-0.51609999 -0.066700786 -0.27682319
-0.31469998 -0.061916769 -1.1562529
-0.53329998 -0.36146516 -0.494008
-0.46740001 -0.68613249 -0.2139309
-0.30839998 -0.25436634 0.38494274
-0.44689998 -0.36846119 0.10081384
2.276 0.32084164 -0.26850072
-0.51370001 -0.13686982 -0.15414414
-0.45709997 -0.25658453 -0.90108001
-0.47350001 -0.12868574 -0.82826442
-0.46599996 -0.28312385 -0.87610912
2.3620999 0.07088156 -0.26007789
2.3246 0.19477487 -0.58032936
-0.49449998 -0.63380724 -0.2659348
-0.3617 -0.14840373 -1.1132174
-0.47170001 -0.32148689 0.060153067
-0.51879996 -0.56604892 -0.47859952
-0.42139998 -0.21710959 -1.0080504
-0.031500001 -0.5918225 0.6770823
-0.17470001 -0.35463631 0.58100975
2.3439 0.16867274 -0.24456087
-0.1602 0.053626776 -1.3681076
2.2858999 0.35462064 -0.34489566
-0.4111 -0.083745539 -1.0410939
-0.54369998 -0.019318819 -0.34340698
-0.4285 -0.55813503 -0.97151375
2.2928998 0.35447651 -0.50647545
-0.4799 -0.68063051 -0.097709805
-0.090100005 0.015600219 -1.4680289
-0.3123 0.025173485 -1.1934956
-0.46529996 -0.10854208 -0.9390496
-0.086099997 0.050270453 -1.4677035
0.164 -0.16498908 -1.6986921
-0.4364 -0.051716864 -0.99929726
-0.46689999 -0.67462611 0.0070239305
-0.0757 -0.56304234 0.686625
-0.48509997 -0.11072266 -0.91516531
-0.5302 -0.51539761 -0.07192573
-0.48399997 -0.3167426 0.14323917
-0.49559999 -0.70539105 -0.11162081
-0.56510001 -0.23582044 -0.67504036
0.2395 -0.14993018 -1.758181
-0.58050001 -0.30706775 -0.22548252
-0.48719996 -0.29248536 -0.96122789
-0.43809998 -0.27429515 -1.0810902
-0.36879998 -0.2937386 0.39688727
2.4357998 -0.20374188 -0.69111413
2.4631999 -0.31046551 -0.33117828
-0.5553 -0.61667341 -0.27672344
-0.2445 -0.36219132 0.57317889
-0.43279999 -0.23769513 0.29730621
-0.54449999 -0.38109636 0.010649949
-0.58719999 -0.35350776 -0.17518254
-0.53189999 -0.12034228 -0.85715449
-0.2075 -0.013616621 -1.4100209
-0.47960001 -0.37843382 0.20344123
-0.41209999 -0.066240847 -1.1334574
-0.48479998 -0.5664795 -0.94952869
-0.10970001 -0.52222878 0.70854521
-0.1345 -0.35161752 0.71131361
-0.61570001 -0.29144669 -0.44998056
-0.55669999 -0.34278548 0.031214982
-0.58209997 -0.024296612 -0.64688182
-0.49599999 -0.13648409 -1.0028712
2.4426 -0.12634137 -0.75748193
-0.38729998 -0.053546429 -1.2002681
-0.6067 -0.12613362 -0.22251859
-0.54210001 -0.26123142 -0.90870273
0.15459999 -0.1309517 -1.750062
-0.62799996 -0.28530246 -0.50555795
-0.4752 -0.50035095 -1.0515963
-0.44999999 -0.03210485 -1.1007327
-0.6006 -0.56812435 -0.28197271
-0.34459999 0.035765275 -1.2587477
-0.1189 -0.50296956 0.7358036
2.3769 0.34404343 -0.38280836
-0.59060001 -0.39983523 -0.77280653
-0.55489999 -0.19235384 0.094295472
-0.31729999 -0.029060602 -1.3287684
-0.55019999 -0.38003916 0.11522225
-0.58999997 -0.65443128 -0.23535147
-0.62400001 -0.49904865 -0.26887894
-0.58789998 -0.31639498 0.018606037
-0.49119997 -0.23387465 0.27736679
-0.53689998 -0.1022543 -0.96261573
2.4542999 0.15278223 -0.49939167
-0.16870001 -0.50154775 0.71219182
-0.59039998 -0.27833855 0.041766346
-0.59020001 -0.49882156 -0.80112547
-0.52700001 -0.29677653 -1.0347906
2.4048998 0.31855434 -0.51179409
2.4161 0.28720555 -0.53844261
2.5242 -0.34716713 -0.44264486
2.4844 -0.047950149 -0.69816834
2.5244999 -0.28760123 -0.29038826
-0.1347 0.059962809 -1.5439792
-0.61680001 -0.16320589 -0.042216927
2.4861999 0.093868911 -0.45839909
-0.62989998 -0.42304254 -0.11484042
-0.4619 -0.28262532 0.374172
2.4791999 0.11713254 -0.58630252
-0.63559997 -0.46669322 -0.1270051
-0.57980001 -0.2080943 0.12655225
-0.60249996 -0.11855724 -0.85115331
-0.5345 -0.51573181 -1.0156206
2.5028 0.08678858 -0.42745852
-0.5557 -0.25872207 -1.0254405
-0.65039998 -0.31526405 -0.096648514
-0.63699996 -0.20830709 -0.77751958
2.4724 0.18914628 -0.56568426
-0.62339997 -0.17672956 0.018354923
-0.54719996 -0.12126577 -1.0408049
2.4389 0.32862514 -0.44970196
2.5274999 -0.20183152 -0.70022076
-0.64249998 -0.31676376 -0.0086723864
-0.56839997 -0.13057715 -1.0156394
-0.56959999 -0.34934169 -1.0413176
-0.6207 -0.59256697 -0.009172678
-0.50959998 -0.076299697 -1.1512749
-0.62589997 -0.53304386 -0.82990539
2.4779999 0.25275525 -0.29066044
-0.47109997 0.02475673 -1.1911322
-0.61659998 -0.63610232 -0.024871051
-0.611 -0.390719 0.13029668
-0.63209999 -0.38467938 0.071857601
2.5629001 -0.31142926 -0.59637451
-0.648 -0.23922434 0.048561782
-0.70459998 -0.29812622 -0.24451903
-0.56819999 -0.2273671 -1.080025
-0.5535 -0.074546933 -1.0857755
-0.63 -0.22561413 0.11016092
2.5251999 0.14320828 -0.27981836
-0.38979998 -0.022328496 -1.3646444
-0.67970002 -0.35451031 -0.76034659
-0.6318 -0.26051217 -0.94330347
-0.60149997 -0.30237234 0.21319738
2.5528998 0.068638489 -0.35216641
-0.61790001 -0.55971426 -0.91360831
-0.66240001 -0.36069655 0.033743203
-0.66769999 -0.66753274 -0.22151634
-0.72149998 -0.40608764 -0.28701189
-0.70639998 -0.31562114 -0.1234172
-0.6067 -0.55960703 -0.97583497
-0.39029998 -0.2963742 0.60590506
-0.69669998 -0.25346041 -0.056709647
-0.7098 -0.14111641 -0.15712689
-0.185 0.044661582 -1.6023226
-0.73390001 -0.30189937 -0.3417514
-0.65509999 -0.68317246 -0.089628458
-0.45109999 -0.032620609 -1.3103061
-0.6904 -0.37522137 -0.023244798
2.5534999 0.073545694 -0.6385653
-0.056799997 -0.13027948 -1.7481157
-0.55159998 -0.30510247 0.36746696
2.5672998 0.074724898 -0.28245038
-0.36999997 0.059663549 -1.4052231
2.5356998 0.19436148 -0.55379808
-0.66589999 -0.38718516 0.090099603
-0.7317 -0.12877196 -0.24095686
-0.36999997 -0.37479144 0.65097272
-0.6803 -0.030884117 -0.82086897
2.5832999 -0.17533934 -0.73068321
-0.62739998 -0.12963992 -1.02441
-0.71609998 -0.46339524 -0.11403537
2.6048999 -0.29186618 -0.63303441
-0.7306 -0.0035754442 -0.47933823
-0.72310001 -0.2476168 -0.73195338
-0.54299998 -0.013145268 -1.1869502
-0.69159997 -0.5017432 -0.81565356
2.6187 -0.3474046 -0.52595174
-0.61299998 -0.5328306 -1.0453413
-0.74250001 -0.24514991 -0.65495527
-0.23979999 0.031918809 -1.5916735
-0.3872 -0.30637109 0.65856922
-0.72899997 -0.4331032 -0.10442924
-0.74839997 -0.31509912 -0.15977895
-0.4756 0.043162197 -1.3041531
-0.72509998 -0.37217683 -0.04108721
-0.75559998 -0.25626105 -0.61670351
-0.639 -0.23607981 0.24956134
2.609 -0.011686653 -0.23869076
-0.74479997 -0.30413145 -0.72932714
2.5994 0.10312226 -0.31795865
-0.6674 -0.013112336 -0.95045161
2.5997999 0.14005002 -0.41278687
-0.7626 -0.0066551864 -0.46475142
-0.66339999 -0.52828687 -0.98818386
2.6499999 -0.34158331 -0.36316782
-0.70840001 -0.7057417 -0.13381895
-0.4436 0.056040257 -1.3835226
-0.55949998 -0.04109627 -1.2322928
-0.77959996 -0.35063291 -0.24677093
-0.74519998 -0.46802306 -0.067634046
-0.71990001 -0.031760007 -0.8291468
-0.77889997 -0.3502394 -0.20811534
-0.69690001 -0.6368711 0.029014081
-0.71569997 -0.32709098 -0.91412151
-0.7191 -0.39604372 0.081023484
-0.69620001 -0.70687431 -0.030648202
2.6222999 0.082640916 -0.46901003
-0.75909996 -0.25166327 -0.046746224
-0.63959998 0.0073486567 -1.0705228
2.6308 0.051082611 -0.29464102
-0.78359997 -0.053745687 -0.3433848
-0.3493 -0.49159765 0.73983967
-0.74129999 -0.482979 -0.80747092
-0.69859999 -0.22135249 0.17985985
-0.6652 -0.0194031 -1.031678
-0.59569997 0.021700755 -1.1720732
-0.71239996 -0.32314336 0.14556298
-0.73909998 -0.1864855 0.054103941
-0.7608 -0.13892457 -0.76559019
-0.71520001 -0.58918208 0.04534325
-0.45660001 -0.3720364 0.63419628
-0.71939999 -0.67422104 -0.03788808
-0.65799999 -0.52633947 -1.0643022
-0.1838 -0.1061787 -1.7304624
-0.61849999 -0.15680802 -1.1882162
-0.59450001 -0.050165027 -1.2119585
-0.39459997 -0.31892663 0.72459209
-0.80250001 -0.37083334 -0.25256675
-0.69519997 -0.26576173 -1.0356176
-0.38639998 -0.38779104 0.73103166
-0.5474 -0.012529314 -1.2981324
-0.73119998 -0.025204211 -0.88302696
-0.77509999 -0.62398839 -0.26633584
2.6382 0.10426077 -0.29562163
2.6626999 -0.23842782 -0.67925715
-0.61680001 -0.29551554 0.40754053
-0.66850001 -0.014182955 -1.0676174
-0.26099998 0.047748417 -1.6491987
2.6571999 -0.17972359 -0.72424674
2.6217999 0.20290847 -0.32757711
-0.79320002 -0.36803275 -0.067468375
-0.81580001 -0.44786298 -0.26777384
-0.75449997 -0.2211768 0.11033413
-0.62259996 -0.088376045 -1.2221487
-0.76620001 -0.22431087 -0.88889062
2.6915998 -0.19004571 -0.21997823
-0.28739998 -0.37999165 0.87223125
-0.7726 -0.035477728 -0.82015574
-0.2343 -0.098387837 -1.7337596
-0.76429999 -0.2724961 -0.93292689
-0.82029998 -0.021375805 -0.5551815
-0.79699999 -0.044876635 -0.7576381
-0.77880001 -0.53075427 0.012286991
2.6929998 -0.062778175 -0.22881265
-0.27449998 -0.082725525 -1.7033784
-0.25379997 0.082517564 -1.6874422
-0.76590002 -0.53819072 0.065402597
-0.77829999 -0.33218175 0.092588693
-0.73469996 -0.24371183 0.22892258
2.7156 -0.28793097 -0.28679085
-0.67189997 -0.28401524 0.37687168
2.7158 -0.36246616 -0.48545185
-0.4215 -0.55790466 0.7242893
-0.60249996 -0.27804172 0.50942266
-0.78999996 -0.49963963 0.021835029
-0.71149999 -0.31295347 0.31409279
-0.7191 -0.36733741 -1.1051117
-0.55419999 0.052231878 -1.3596209
2.6903 0.10789734 -0.34676713
-0.85939997 -0.31649691 -0.2560848
2.6661 0.21833533 -0.40700495
-0.85229999 -0.022417992 -0.42660916
-0.83050001 -0.43601936 -0.78700554
-0.73680001 -0.39374709 -1.1062145
-0.8319 -0.32150364 0.023391694
-0.60879999 -0.28707188 0.55718017
-0.87589997 -0.35253018 -0.22679693
-0.34959999 0.036537781 -1.6599081
-0.83840001 -0.36094379 0.0057753325
-0.79479998 -0.53463203 -0.91994917
-0.7622 -0.41973263 -1.0561665
-0.75159997 -0.32129568 -1.1042029
-0.8373 -0.66701865 -0.19045518
-0.79549998 -0.23661014 0.18519136
-0.62079996 0.0010968596 -1.3293403
-0.72039998 -0.32897311 0.37960634
-0.82489997 -0.40868819 0.089963615
-0.8416 -0.48704618 -0.81204665
-0.83779997 -0.40455037 0.060738117
-0.8962 -0.39277583 -0.28821865
-0.89239997 -0.35161 -0.19170401
2.727 0.095639214 -0.59973896
-0.80729997 -0.20185673 -1.0058686
-0.86930001 -0.62666374 -0.25980115
-0.79049999 -0.54891163 -1.0048181
-0.74989998 -0.25186843 0.35177252
-0.69730002 -0.035971254 -1.2440819
-0.76730001 -0.31585503 0.31845519
-0.82519996 -0.70109177 -0.0214037
-0.70959997 -0.014586359 -1.2190887
-0.82410002 -0.15223143 -0.97863758
-0.82169998 -0.019802153 -0.94360924
-0.68119997 0.010848209 -1.2734987
2.7804999 -0.23300242 -0.23953468
-0.49329996 -0.57255232 0.74171031
-0.89379996 -0.21842039 -0.72822684
2.7426 0.12537742 -0.53285891
-0.81909996 -0.046558738 -0.98132861
-0.38549998 0.10129578 -1.6614871
-0.85509998 -0.58177352 0.00044775009
-0.73119998 -0.15254444 -1.2290969
-0.91030002 -0.50271887 -0.29298243
-0.82730001 -0.22077113 0.19499066
2.7554998 0.091943219 -0.51773494
-0.7374 -0.26217645 0.41656694
-0.74669999 -0.30253172 0.40010926
-0.81409997 -0.096703112 -1.0338337
-0.82699996 -0.29350388 0.21069941
-0.83569998 -0.2035411 -0.99631596
-0.79299998 -0.51391047 -1.0818099
-0.8168 -0.3857463 -1.0582972
-0.92589998 -0.23726532 -0.19347519
-0.3748 0.049008623 -1.7099022
-0.92469996 -0.248151 -0.65751529
2.8095 -0.3460775 -0.35553223
-0.92219996 -0.045131624 -0.592067
-0.74589998 -0.12252748 -1.2409648
-0.50349998 -0.64625919 0.7508502
-0.92359996 -0.55995595 -0.27819693
-0.9285 -0.52490216 -0.26968053
-0.9296 -0.23748589 -0.69554102
-0.47640002 -0.40560043 0.840096
2.7672999 0.17386247 -0.41565904
-0.89429998 -0.041641116 -0.81860244
-0.73379999 -0.34673756 0.47862592
2.8000998 -0.01814121 -0.24815539
-0.90329999 -0.18623242 0.041151106
-0.50870001 0.021960139 -1.5973897
-0.8193 -0.39163411 -1.1158946
-0.84039998 -0.20637286 -1.0729723
-0.77669996 0.0024439543 -1.1820689
-0.38599998 -0.38899958 0.95441556
-0.59200001 -0.31887454 0.72429657
-0.83349997 -0.3595261 0.28567377
-0.90859997 -0.2288788 -0.86989522
-0.8531 -0.3051728 -1.0528226
-0.93669999 -0.16359916 -0.079146266
-0.4853 -0.34445435 0.85900116
-0.91539997 -0.40479642 0.041401654
-0.91189998 -0.47265506 0.031771809
-0.91339999 -0.67969263 -0.1433402
-0.55269998 0.083272323 -1.5506327
-0.91710001 -0.27429771 0.0649198
-0.94629997 -0.25856918 -0.7596764
-0.95030004 -0.31299806 -0.75505769
-0.97349995 -0.3165071 -0.20419824
-0.88940001 -0.53414994 -0.95205319
-0.93180001 -0.10333073 -0.83039391
2.8364 -0.072968543 -0.23436657
2.8122001 0.10305887 -0.5652262
-0.85219997 -0.0040941834 -1.0845224
-0.60179996 -0.44156915 0.75038719
-0.56479996 -0.5391742 0.78161263
-0.97470003 -0.22616136 -0.1170865
-0.71869999 -0.36483049 0.58987415
2.8522 -0.1176838 -0.23646314
2.8341 0.083708823 -0.41287172
2.8594 -0.19609016 -0.23810318
2.8223 0.14315683 -0.48281121
-0.66109997 -0.0020799339 -1.4708416
-0.63139999 -0.53109205 0.70698237
-0.48519999 -0.19183129 -1.7272875
-0.93430001 -0.20652387 0.13089088
-0.97600001 -0.21616179 -0.77443671
-0.89959997 -0.070970863 -1.0306164
2.8511 0.066386119 -0.3031123
-0.796 -0.27745277 0.49571666
-0.76599997 0.041626036 -1.3121413
-0.7676 -0.025724411 -1.3321403
-0.90969998 -0.24997222 0.24081615
-0.92070001 -0.23485124 0.21149644
-0.63569999 -0.41753983 0.75462425
-0.52529997 -0.41418964 0.8934145
-0.99970001 -0.27064228 -0.72403133
-1.0147001 -0.066401482 -0.37354058
-0.93889999 -0.078282326 -0.95402241
-0.99700004 -0.32124346 -0.063889116
-0.7202 0.060120732 -1.4083918
-0.75059998 -0.36603439 0.59727764
-0.88260001 -0.093779504 -1.1298853
-0.66359997 -0.55775154 0.70096135
-1.021 -0.26130116 -0.61921692
-0.9716 -0.42024219 0.068531662
-0.79799998 -0.35362428 0.52747226
-0.50059998 0.045566067 -1.7214757
-1.0040001 -0.17087123 -0.052301228
-0.95160002 -0.62849617 0.059836686
-0.96610004 -0.41411275 0.11439285
-0.97390002 -0.036330342 -0.86945283
-0.68619996 0.0049416423 -1.5077837
-0.66649997 -0.62556219 0.7037282
-0.5557 -0.13888717 -1.70333
-0.96129996 -0.2285088 0.16458514
-0.99700004 -0.24974066 0.032186776
-1.0467 -0.29926413 -0.47014436
-1.0087 -0.23699722 -0.015322059
-0.94279999 -0.27751213 -1.0536317
-0.85570002 -0.011697412 -1.2308661
-0.93150002 -0.49560773 -1.0594926
-0.6469 -0.33364129 0.80170846
2.9152999 -0.16314673 -0.24123012
-1.0250001 -0.32543129 -0.018831819
-0.90979999 -0.28015286 0.36648449
-0.92659998 -0.46300185 -1.115989
-0.86669999 0.022330105 -1.2286232
2.9247 -0.34525907 -0.59340394
-0.99980003 -0.085033417 -0.88809323
-0.79179996 -0.015310943 -1.3888943
-0.92820001 -0.41955167 -1.129753
-0.98589998 -0.68242323 0.0074768364
-1.059 -0.44150591 -0.25142151
2.9106998 -0.074636281 -0.68733782
-1.0546 -0.24383876 -0.68254673
-0.39549997 0.098243311 -1.8670399
-0.96619993 -0.028345585 -1.0195465
-0.46950001 0.11936253 -1.7944701
-0.97569996 -0.32562834 0.22991297
-0.97849995 -0.53004718 -0.98280787
-0.98260003 -0.44332647 0.19484207
-0.95469993 -0.38649642 0.29350951
-0.49059999 -0.39281982 1.0181199
-0.59579998 -0.10920018 -1.7133268
-1.084 -0.30870712 -0.35036442
-0.97359997 -0.3900218 -1.0616912
-1.0399001 -0.6493839 -0.18105006
-1.0834 -0.28359938 -0.54689014
-1.0436001 -0.1828998 0.011885196
-0.53710002 -0.42216647 0.97608531
-0.5873 -0.0030584335 -1.7169505
-1.0524 -0.26017278 -0.0036694705
-0.9346 -0.19463599 -1.1936679
-0.84259999 -0.29212677 0.57375419
-1.0594001 -0.62592685 -0.25073546
-1.0139 -0.23102289 0.16444644
-0.99949998 -0.24430466 0.21500823
-0.84799999 -0.35879207 0.56484246
2.9254 0.11685489 -0.45861083
-0.59149998 0.10645859 -1.6930703
-0.72999996 0.078213707 -1.5196402
-1.0324 -0.53354084 -0.8627913
-0.54039997 -0.37634838 0.99381077
-0.90359998 -0.074333817 -1.2608989
-1.0942 -0.12129629 -0.30350903
-1.0258 -0.16670403 -0.95184362
-0.94449997 -0.07428062 -1.1702119
2.9628 -0.16814047 -0.2434307
-0.44349998 0.1169437 -1.8590716
-1.044 -0.083375633 -0.88079441
-0.9386 -0.042834163 -1.1907636
-1.0823001 -0.3586424 -0.73172939
-1.0232 -0.52223307 -0.9447732
-0.59579998 0.046208575 -1.7251196
-1.0062001 -0.13416767 -1.0499848
-1.1026001 -0.36342204 -0.19439605
-1.0662 -0.22358373 0.047968715
-1.0853001 -0.26475775 -0.77295274
-1.0126001 -0.25281584 0.24600109
-0.76370001 0.0086926669 -1.5273292
-1.0313001 -0.021523654 -0.9511224
-1.1008 -0.51931447 -0.24493429
2.9649 -0.14495653 -0.69394922
-1.115 -0.42499691 -0.29725102
-0.62970001 -0.0084748864 -1.7179056
-0.9824 -0.26034915 0.35149571
2.9719999 -0.010380745 -0.26222152
-1.1279 -0.30624044 -0.39948228
-1.0589 -0.65942639 -0.039442539
2.984 -0.11983377 -0.24212246
-1.0859001 -0.32986999 0.01267609
-0.87549996 -0.015511006 -1.3693318
-0.97180003 0.00463745 -1.1547735
-1.1060001 -0.069399446 -0.68651593
-1.0672001 -0.22582063 0.12515286
-0.88679999 0.013321981 -1.3549058
2.9758 0.093636632 -0.37933832
-0.42719999 0.11610034 -1.9251215
-1.1348001 -0.24369228 -0.21288608
-1.1065 -0.23126078 -0.0046640337
-1.0324 -0.062360018 -1.0529606
-0.66460001 0.042486548 -1.7051626
-1.0205001 -0.0068309605 -1.1029781
-1.0372001 -0.5032869 -1.085623
-1.034 -0.30635452 0.32043508
-1.1149 -0.44886762 -0.82643557
-0.61059999 0.059140354 -1.7927006
-1.0999 -0.70003498 -0.086712301
-0.5808 -0.43083477 1.0430982
-1.0751001 -0.26521796 -1.041005
-1.1378001 -0.61351269 -0.20884334
3.0393999 -0.38129538 -0.42012912
-1.0356001 -0.049718916 -1.1281072
-1.1146001 -0.18158525 -0.90603173
-1.0747 -0.36000758 -1.0505095
-0.98289996 -0.030174494 -1.2573773
-0.43399999 -0.66388834 1.1560447
-0.84310001 -0.61656737 0.69302762
-1.133 -0.33534867 0.063902944
-1.1116 -0.15938246 -0.95593441
-1.1377001 -0.42774439 0.023545504
-1.1373 -0.089265376 -0.82781219
-1.1001 -0.28090048 0.19738564
-1.0066 0.0069454461 -1.2202677
-0.85769999 -0.47249597 0.71731448
-1.1765001 -0.21343192 -0.14032915
3.0434 -0.23412439 -0.68408322
-0.71079999 -0.42229855 0.94285762
-1.1087 -0.24625692 0.21456245
-0.78939998 -0.34326184 0.8528142
-1.1470001 -0.22558969 0.077773154
-0.68369997 -0.37094879 0.99831688
-1.0937001 -0.018114805 -1.0568365
-1.0186001 -0.040996403 -1.2639564
-1.1772001 -0.28254402 -0.78898484
-1.0532 -0.29377836 0.40287128
-0.72460002 -0.15232316 -1.7624617
-1.1755 -0.3890022 -0.021105319
-1.0933001 -0.25993276 0.3053672
-0.9307 -0.00099873543 -1.4441484
-0.91229999 0.0038219839 -1.4778229
3.0822001 -0.25128275 -0.26773748
-1.1572001 -0.17995861 -0.91468072
-1.0795001 0.0055285692 -1.1200918
3.0578001 0.095313087 -0.44585779
-1.1676 -0.19972968 0.08314532
-0.98729998 -0.29839385 0.57935095
3.0704999 0.034501195 -0.31117147
-1.1055001 -0.31477296 0.31001487
-1.1513001 -0.27303255 0.16485777
-0.88499999 -0.51395243 0.73762405
-1.1520001 -0.16557625 -0.96515
-1.0827 -0.076824009 -1.1724882
-1.1762 -0.044801325 -0.84099138
-1.098 -0.30971068 0.34695515
-1.1599001 -0.20400587 -0.96431041
-1.2093 -0.17648754 -0.07400623
-1.2026 -0.26452345 -0.79616469
-0.7827 0.041380882 -1.6994681
-1.2161001 -0.3306089 -0.71795213
-1.1436001 -0.23824283 0.2330347
-1.1396 -0.32116908 0.26278678
-0.49329996 -0.63240945 1.2021108
-0.62269998 -0.4392826 1.1128914
-1.2010001 -0.33617437 0.041519523
-1.0806 -0.049054652 -1.2251664
-1.1313001 -0.015406847 -1.0791045
-1.2360001 -0.20785755 -0.12817651
-1.2424001 -0.40336025 -0.21149096
-1.2235 -0.431723 -0.75954223
-1.0062001 -0.36157775 0.61116242
-1.2210001 -0.358908 -0.80854249
-1.2216001 -0.060981095 -0.7601732
-1.2539001 -0.085382164 -0.39719591
-1.0235001 -0.30155516 0.59036934
-1.2197001 -0.2509113 -0.84514511
-0.76239997 0.11544716 -1.748654
-1.2276001 -0.60874611 -0.17368142
-1.1458 -0.48710924 -1.0979003
-1.1907001 -0.16274533 -0.97774982
-0.9278 -0.39336467 0.76609647
-1.153 -0.25861233 0.30306146
-0.37129998 -0.067121297 -2.173105
3.1345 -0.36310923 -0.56933796
-1.1367 -0.086941779 -1.1559945
-0.93220001 0.017279714 -1.5541455
-1.2713001 -0.23719776 -0.20767924
-1.2783 -0.31531668 -0.30827269
-0.91689998 0.084595829 -1.5725355
-0.70529997 -0.38704693 1.0827035
-1.1196001 0.0059059709 -1.1970961
-0.54759997 0.13726166 -2.0077014
-0.72420001 0.12823263 -1.8269228
-1.1541001 -0.27790046 0.35946909
-1.0067 -0.3159321 0.68054271
-1.2815001 -0.073438942 -0.45053229
-1.2743001 -0.084495634 -0.60378045
-1.2706001 -0.20030537 -0.7226972
3.1469998 -0.29748315 -0.65991819
3.1571999 -0.24428469 -0.26538658
-1.0427001 -0.0031947494 -1.4063555
-1.256 -0.48309433 -0.8039372
-1.24 -0.44615662 0.088230968
-1.1960001 -0.52039969 -1.0490389
-1.2736001 -0.2108689 -0.038537651
-1.2334001 -0.54097855 -0.90238428
-1.2911 -0.51386487 -0.29657245
-1.2826 -0.20724255 -0.079835325
3.1475999 0.074797958 -0.42337871
-1.2936001 -0.16556346 -0.16590542
-1.2934 -0.46145672 -0.21198684
-1.2961 -0.25757539 -0.65359217
-1.2641001 -0.41204977 -0.8377136
-1.1286 -0.28780037 0.48414406
-0.42459998 -0.09386909 -2.1889911
-0.87619996 -0.41872162 0.92084432
-1.2382001 -0.50049198 0.1406928
-0.74650002 -0.38788044 1.0874306
-1.1833 -0.21966368 -1.1703597
-1.2523 -0.036014974 -0.89254892
-1.2975 -0.24716264 -0.71552491
-0.86049998 -0.17172968 -1.765274
-1.2384001 -0.58862323 0.10667202
-1.0626 -0.31120503 0.63933778
-0.87940001 0.042439684 -1.708928
-1.2763001 -0.083482355 -0.81511509
-1.1719 -0.035644114 -1.1825908
-1.1397001 -0.029005557 -1.26631
-0.88809997 -0.19449168 -1.738114
-1.253 -0.37720191 0.14750537
-1.0325 -0.53781039 0.67482722
-0.91609997 -0.35024869 0.88955915
3.1907001 -0.31681103 -0.3067084
-1.0036 -0.50863451 0.73856175
-1.2546 -0.67667663 0.0082870722
3.168 -0.017572582 -0.65737355
-1.25 -0.5616383 0.12006137
-1.2992001 -0.3144666 -0.027458876
-1.2458 -0.053794473 -0.98463523
-1.1500001 -0.10947603 -1.2810068
-1.2666 -0.32760566 0.1322864
-1.2285 -0.25616628 0.27191302
-1.3228 -0.22256714 -0.18123692
-0.91600001 0.035845295 -1.6824713
-1.1857001 -0.069892555 -1.1910669
-1.1862 -0.27653873 0.40357557
3.1754999 0.0040432811 -0.63772148
-1.2164 -0.31818289 0.32474658
-1.3321 -0.27377868 -0.24266291
-0.39639997 -0.04088822 -2.2337713
-0.65439999 -0.56317461 1.1929948
-0.84359998 0.11853214 -1.7673014
-1.1038001 -0.005212903 -1.3805134
-1.2336 -0.023600221 -1.0539451
-1.1716001 -0.13430715 -1.2611165
-1.2426001 -0.23891321 -1.0865288
-1.1680001 0.0083374679 -1.2494696
-1.3054 -0.66425622 -0.19575603
-1.0563 -0.62815845 0.65453005
-0.96890002 0.031606182 -1.6319395
-1.2959001 -0.18694863 -0.90037715
-0.79409999 0.072268873 -1.8619733
-0.74610001 -0.39782524 1.1397994
-0.58929998 0.13185492 -2.0639954
-1.2234 0.0030843914 -1.1171719
-1.2366 -0.41794419 0.30542979
-1.207 0.0045660734 -1.1681896
-1.2037001 -0.21091247 -1.2251728
-0.94569999 -0.13489652 -1.7081096
-1.3433001 -0.25713003 -0.65899694
-1.3284 -0.33492279 -0.039290816
-1.2522 -0.082845926 -1.0703827
-1.1907001 -0.3261584 0.45808741
-1.0092001 -0.39813209 0.80810678
-0.7665 -0.45180511 1.1245947
-1.0680001 -0.54825383 0.68222606
-1.3211 -0.26200897 -0.83461213
-1.3526001 -0.46805608 -0.3041327
-1.1519001 -0.011537671 -1.3319743
-0.71429998 -0.45567191 1.1862601
-0.96160001 -0.35168427 0.89712477
-1.3041 -0.69304258 -0.04171446
-1.3202001 -0.4399575 -0.86314607
-1.3074 -0.45680004 0.11519238
-1.3324001 -0.19878685 0.03172788
-1.3293 -0.25276822 -0.86801499
3.2439001 -0.33082008 -0.32055134
-1.0725 0.066606492 -1.5073693
-1.3666 -0.32741463 -0.15961501
-0.59359998 0.14151883 -2.0951912
-1.3616 -0.38570875 -0.12328577
-1.2101001 -0.023586452 -1.246366
-1.3394001 -0.50421494 -0.012683928
-1.2704 -0.31450629 0.31138203
-1.2894001 -0.53547311 -1.010775
-1.3797001 -0.42448241 -0.30477598
-0.85289997 0.069415078 -1.8469405
-0.48750001 -0.085921466 -2.2317607
-1.2685001 -0.35554612 0.32932815
-1.3554001 -0.065880358 -0.74966419
-1.222 -0.10249907 -1.2641391
3.2509 -0.35097259 -0.6064949
-1.3711001 -0.20304358 -0.085796744
-1.3125 -0.045869112 -0.97948074
-1.0111001 -0.40985388 0.8711288
-0.83899999 -0.44756263 1.0982311
-1.3939 -0.13595691 -0.33726767
-1.1114 -0.32547396 0.71450174
-1.3345001 -0.3284449 0.13762173
3.2419999 0.06045799 -0.48429424
-1.3674001 -0.21765351 -0.79592216
-1.2788 -0.42787069 0.32256636
-1.3251001 -0.22652704 -0.99610424
-1.0786 -0.6173504 0.72741413
-1.2815001 -0.18443388 -1.1455654
-0.92309999 0.057965264 -1.7866123
-1.3297 -0.45311701 -0.97452331
-1.1605 -0.36028844 0.63494766
-1.2831 -0.22520047 -1.1619941
-1.3221 -0.4405871 -1.0167897
