# .PCD v0.7 - Point Cloud Data file format
VERSION 0.7
FIELDS x y z
SIZE 4 4 4
TYPE F F F
COUNT 1 1 1
WIDTH 1536
HEIGHT 1
VIEWPOINT 0 0 0 1 0 0 0
POINTS 1536
DATA ascii
-2.6914999 -0.45680001 -0.1257
-2.6905 -0.1639 0.2051
-2.6896999 -0.027899999 0.1435
-2.6889 -0.19230001 -0.3475
-2.6833999 -0.20379999 0.3127
-2.6691 -0.0836 0.2033
-2.6679001 -0.15710001 -0.25659999
-2.6668999 0.26359999 0.0482
-2.6638999 0.3012 -0.044799998
-2.6624 -0.16509999 -0.18880001
-2.6557 -0.163 -0.33739999
-2.6547999 -0.43079999 -0.1724
-2.6537001 -0.22930001 -0.1856
-2.6496999 0.51279998 -0.0253
-2.6482 0.33419999 -0.0416
-2.6394999 0.37290001 0.038800001
-2.6329 -0.2059 -0.28819999
-2.6289999 0.1354 -0.055300001
-2.6243999 0.0060000001 -0.081600003
-2.6236 -0.3134 -0.2527
-2.6126001 0.44029999 -0.028899999
-2.6113999 -0.1698 0.1759
-2.6048999 0.022700001 0.066699997
-2.6039 0.45860001 0.0266
-2.6027 0.57169998 -0.011
-2.6026001 0.1494 0.054200001
-2.5971999 0.36790001 0.035300002
-2.5964 0.48949999 -0.021199999
-2.5962999 -0.0244 -0.14650001
-2.5910001 -0.1601 -0.25130001
-2.5843999 0.079400003 0.063000001
-2.5804 0.24609999 0.044300001
-2.5727 -0.426 -0.1998
-2.5720999 0.40669999 -0.0276
-2.5718999 -0.1037 -0.22679999
-2.5655999 -0.016799999 0.14030001
-2.5651 -0.51590002 -0.022600001
-2.5639999 0.18089999 0.049199998
-2.5632999 0.29589999 0.038600001
-2.5592999 -0.1798 -0.1655
-2.5583 -0.34540001 0.25209999
-2.556 -0.219 0.1619
-2.5523 0.26879999 -0.039099999
-2.5511 -0.2071 0.25119999
-2.5423999 -0.063600004 0.1996
-2.5272999 -0.2041 0.21250001
-2.5260999 -0.5115 0.088299997
-2.5243001 0.31639999 -0.0317
-2.5209999 -0.044100001 0.18009999
-2.5192001 -0.098099999 -0.2274
-2.5186 -0.19320001 0.25569999
-2.517 0.1125 0.055599999
-2.5088999 -0.3531 0.25780001
-2.5044 -0.26350001 -0.27720001
-2.5032001 -0.1374 -0.25080001
-2.497 -0.32749999 -0.2696
-2.4921999 0.384 0.020199999
-2.4860001 -0.4932 -0.1478
-2.4842999 0.27469999 -0.031399999
-2.4828 -0.0139 0.1442
-2.4814 0.3272 -0.0251
-2.4791999 -0.53560001 0.0206
-2.4779 -0.39669999 0.24529999
-2.4772999 -0.053599998 0.1964
-2.4598999 -0.30469999 -0.27810001
-2.4533999 -0.2182 -0.2798
-2.4489999 -0.449 0.2122
-2.4475999 0.1367 0.046500001
-2.4468 -0.53619999 -0.071000002
-2.4419 -0.20119999 0.27990001
-2.4370999 0.024599999 -0.067699999
-2.4328001 -0.0995 -0.23630001
-2.4307001 0.17219999 -0.038699999
-2.4210999 -0.4003 -0.25310001
-2.4161999 -0.52960002 0.107
-2.4128001 0.22220001 0.029300001
-2.4038999 0.33759999 0.0101
-2.3954 -0.48539999 -0.1885
-2.3719001 -0.55680001 0.042800002
-2.3668001 -0.078500003 0.2272
-2.3666 -0.017999999 0.1601
-2.3629999 -0.4594 -0.2236
-2.3613 0.16140001 -0.032400001
-2.3578999 0.080300003 0.053399999
-2.3504 -0.54189998 -0.1136
-2.3441 0.2483 0.0155
-2.3320999 -0.56440002 -0.052499998
-2.3285 -0.22830001 0.2969
-2.3155999 -0.56889999 0.047499999
-2.306 -0.42719999 0.26269999
-2.3058 -0.5765 0.0063
-2.3046999 0.1814 -0.020199999
-2.2997999 -0.2491 0.303
-2.2876 -0.0024000001 -0.14
-2.286 0.0427 0.059999999
-2.2852001 0.17200001 0.020199999
-2.2718 -0.34169999 -0.30019999
-2.2625999 0.0127 0.1072
-2.2611001 -0.2474 -0.30649999
-2.2586999 -0.15790001 -0.28420001
-2.2521 -0.4111 -0.27900001
-2.2516 0.17820001 0.0014
-2.2478001 0.1172 0.0284
-2.2395 -0.55049998 0.1566
-2.2372999 -0.4549 0.25760001
-2.2279 -0.57789999 0.096900001
-2.2269001 -0.086099997 0.24590001
-2.2212999 -0.55629998 -0.15189999
-2.2175 0.0253 -0.079999998
-2.2149 -0.47240001 -0.24860001
-2.2023001 0.0074 -0.1259
-2.2000999 -0.2836 0.31909999
-2.1998999 0.055799998 0.047899999
-2.1940999 -0.044500001 -0.2094
-2.1912 -0.17919999 -0.2999
-2.1859 -0.4131 0.29089999
-2.1859 -0.331 -0.31400001
-2.1829 0.034299999 -0.052900001
-2.1819 0.018300001 0.1026
-2.1758001 -0.59740001 -0.069399998
-2.1675 -0.53479999 -0.2006
-2.1673 -0.2676 0.32120001
-2.1602001 0.1016 -0.0196
-2.1515999 -0.1274 0.28330001
-2.1472001 -0.51740003 -0.23
-2.1393001 -0.1904 -0.3098
-2.1331999 0.0038000001 0.14309999
-2.1301 -0.60470003 -0.0867
-2.1248 0.1013 -0.0044
-2.1097 -0.45320001 0.28799999
-2.1097 -0.6171 0.033799998
-2.1097 0.029100001 0.082199998
-2.102 -0.57239997 0.1745
-2.0815001 -0.40970001 0.31110001
-2.0790999 -0.15350001 0.30149999
-2.0711 -0.073200002 -0.2493
-2.059 0.0363 -0.040899999
-2.0401001 -0.3114 0.33840001
-2.0325999 -0.17470001 -0.3141
-2.0285001 -0.093400002 0.2696
-2.0283999 -0.28839999 -0.33950001
-2.0165999 -0.6304 -0.089000002
-2.0006001 -0.1498 -0.3071
-1.9997 -0.60579997 0.15880001
-1.9967999 -0.1596 0.3125
-1.9926 -0.64719999 0.0051000002
-1.9909 -0.51639998 0.26859999
-1.99 0.034299999 -0.075900003
-1.99 -0.031800002 -0.2114
-1.9852999 -0.58139998 -0.20110001
-1.9759001 0.0148 0.1345
-1.9634 -0.018100001 0.197
-1.9404 -0.23100001 0.34290001
-1.9395 -0.64170003 -0.1038
-1.913 -0.4612 0.31819999
-1.9099 -0.038400002 0.22570001
-1.9092 -0.029300001 -0.2129
-1.8997999 -0.33180001 0.3536
-1.8977 -0.0049999999 0.1824
-1.8893 -0.55229998 -0.2606
-1.886 -0.53710002 0.2737
-1.8845 -0.47150001 -0.3168
-1.8746001 -0.27090001 -0.35229999
-1.874 0.043200001 0.0197
-1.869 -0.101 0.28600001
-1.8487 -0.66820002 0.054200001
-1.8482 -0.6566 -0.1084
-1.8423001 -0.317 0.36129999
-1.8408999 -0.51670003 0.2974
-1.8375 -0.15360001 -0.32030001
-1.8292 0.032900002 -0.094599999
-1.824 -0.0473 -0.23890001
-1.8207 0.043200001 0.0199
-1.8183 -0.5298 -0.29049999
-1.8107001 -0.59119999 -0.2362
-1.809 -0.17900001 -0.33250001
-1.7995 -0.47600001 0.32699999
-1.798 -0.063000001 -0.259
-1.7974 -0.52399999 0.29960001
-1.7945 -0.091399997 0.28189999
-1.7923 0.045299999 -0.0027999999
-1.7907 -0.39899999 0.35569999
-1.7887 -0.4436 -0.34099999
-1.7803 -0.14300001 -0.3193
-1.7789 -0.5722 -0.26499999
-1.7740999 -0.20730001 -0.34630001
-1.7726001 -0.2983 0.36469999
-1.7709 -0.0043000001 0.18520001
-1.7681 -0.65240002 0.155
-1.7674 -0.60759997 0.227
-1.7632999 0.033799998 0.091399997
-1.7533 -0.2218 0.35440001
-1.7268 -0.537 -0.30129999
-1.7216001 -0.3705 -0.3655
-1.7178 -0.043099999 0.23729999
-1.7086999 -0.50410002 -0.3265
-1.6988 -0.69770002 -0.0309
-1.696 -0.26230001 -0.36489999
-1.6957 -0.1128 0.30250001
-1.694 -0.45750001 -0.3477
-1.6745 -0.69019997 0.1054
-1.6717 -0.18269999 0.34299999
-1.6645 -0.012 -0.1974
-1.6616 -0.53759998 -0.31259999
-1.6585 -0.138 -0.32260001
-1.6556 -0.62089998 -0.2379
-1.6456 -0.22139999 -0.35960001
-1.6441 -0.70679998 0.036600001
-1.6436 -0.0515 -0.24959999
-1.642 -0.68540001 0.13150001
-1.6386 -0.70420003 -0.063299999
-1.6346 0.044 -0.0125
-1.633 -0.27579999 0.37239999
-1.6299 -0.60159999 0.27000001
-1.6217 -0.70709997 0.064900003
-1.62 -0.4876 0.3459
-1.6043 -0.093099996 -0.2904
-1.6019 -0.56580001 0.30250001
-1.5946 0.0011 -0.175
-1.5927 -0.1723 -0.34240001
-1.5888 -0.093199998 0.29210001
-1.5865999 0.038699999 0.054000001
-1.5854 0.0088 0.1573
-1.5829 0.0209 -0.1274
-1.5745 -0.60519999 -0.27630001
-1.5671 -0.27869999 0.3779
-1.5562 -0.71259999 -0.1029
-1.5481 -0.0427 -0.24079999
-1.5451 -0.66979998 -0.2023
-1.5409 -0.44670001 -0.37180001
-1.5397 -0.72729999 0.0149
-1.5373 -0.59100002 0.29359999
-1.5312001 -0.72350001 -0.048700001
-1.5272 -0.70349997 0.1336
-1.5141 -0.1238 0.31799999
-1.5129 -0.70969999 -0.1208
-1.4991 0.0232 -0.1226
-1.4987 -0.161 0.3425
-1.4949 -0.4307 0.3784
-1.4861 -0.003 0.1869
-1.4697 -0.0035000001 -0.1873
-1.4672 -0.0372 -0.23469999
-1.4667 -0.61729997 0.27939999
-1.4651999 -0.32789999 -0.38789999
-1.4611 -0.68959999 0.1812
-1.4602 -0.1952 0.35780001
-1.4579 -0.29890001 0.38530001
-1.4464999 -0.055300001 0.25940001
-1.4462 -0.1523 0.34040001
-1.4381 -0.2615 -0.3802
-1.4377 -0.73509997 -0.020199999
-1.4282 -0.229 0.37270001
-1.4181 0.041999999 -0.0276
-1.4094 -0.50919998 -0.35420001
-1.4092 -0.4824 0.3662
-1.4059 -0.3646 -0.39039999
-1.3904999 -0.45449999 -0.37799999
-1.3885 -0.7202 0.1228
-1.3862 -0.59729999 0.3017
-1.3844 -0.30610001 -0.38800001
-1.3788 0.003 0.1732
-1.3624001 -0.1111 0.31130001
-1.3621 -0.6164 -0.28819999
-1.362 -0.30840001 0.3901
-1.357 -0.74010003 0.035500001
-1.3454 0.0023000001 -0.1742
-1.3365999 0.034499999 0.086099997
-1.329 -0.35620001 0.39610001
-1.3214999 -0.27090001 0.38659999
-1.3142 -0.73699999 0.086400002
-1.3128 -0.067599997 0.27739999
-1.3125 -0.018100001 0.2129
-1.3091 -0.65640002 -0.2491
-1.3047 -0.0309 -0.2288
-1.2915 -0.70139998 0.1886
-1.2846 -0.70090002 -0.1903
-1.2821 -0.4587 0.38409999
-1.2812999 -0.57120001 0.33070001
-1.2797 -0.3585 0.39820001
-1.2693 -0.72539997 -0.1346
-1.268 -0.032099999 -0.2308
-1.2641 -0.23899999 -0.38049999
-1.2637 0.039500002 0.047899999
-1.2454 -0.4364 -0.38870001
-1.2442 -0.12909999 0.32749999
-1.2282 -0.62840003 -0.2904
-1.2266999 -0.58840001 0.32210001
-1.2237999 -0.7475 -0.064000003
-1.2218 0.016799999 0.1411
-1.2122999 -0.4075 0.39500001
-1.2061 -0.54079998 0.35479999
-1.2039 -0.057500001 0.26570001
-1.2013 -0.080300003 -0.29010001
-1.201 0.042199999 -0.026699999
-1.1975 0.043400001 0.018200001
-1.1914999 -0.42640001 -0.3926
-1.1672 0.033399999 -0.093500003
-1.1657 0.0359 0.075400002
-1.1647 -0.60229999 0.31639999
-1.1576 -0.0185 -0.2145
-1.152 -0.75080001 -0.074600004
-1.1437 -0.75209999 0.065099999
-1.1421 -0.55919999 0.3495
-1.1368001 -0.6444 0.28310001
-1.1356 -0.74199998 0.1166
-1.1323 -0.33579999 -0.39989999
-1.1316 -0.49439999 -0.37549999
-1.1279 -0.75880003 0.0142
-1.1201 -0.58530003 -0.3285
-1.1154 -0.2181 -0.37450001
-1.1116 -0.37270001 -0.4007
-1.1079 -0.0136 -0.208
-1.1078 -0.66960001 0.2502
-1.1018 -0.2244 0.37799999
-1.0951999 -0.74290001 -0.1134
-1.0871 -0.60409999 0.31510001
-1.0865 -0.4921 -0.37639999
-1.0808001 -0.055799998 0.264
-1.0742 -0.75529999 -0.040399998
-1.073 -0.58090001 -0.3319
-1.068 -0.71759999 -0.17460001
-1.0635999 -0.41330001 0.39629999
-1.0476 -0.15000001 0.3452
-1.0422 -0.1092 0.31380001
-1.033 -0.25560001 -0.38929999
-1.0307 -0.54750001 -0.35350001
-1.021 -0.7094 0.1953
-1.0109 -0.0814 -0.29159999
-1.0075999 -0.68400002 -0.2306
-1.0067 -0.071199998 0.2841
-1.0053999 -0.1189 0.32120001
-0.99790001 -0.63919997 -0.2872
-0.99690002 -0.22409999 0.3779
-0.99599999 0.0078999996 0.1631
-0.9932 0.022500001 -0.1269
-0.98619998 0.034299999 -0.086199999
-0.98100001 -0.42359999 0.39489999
-0.9716 -0.6304 0.2949
-0.97149998 -0.65539998 -0.26789999
-0.97009999 -0.23370001 -0.38100001
-0.96829998 0.0046000001 -0.1701
-0.96210003 0.043900002 0.0142
-0.95990002 -0.75709999 0.027100001
-0.95340002 -0.1329 -0.33109999
-0.93449998 -0.2448 0.38640001
-0.91820002 -0.1162 0.31920001
-0.91649997 -0.00089999998 -0.1833
-0.91509998 -0.0266 0.22589999
-0.91049999 0.2061 3.2413001
-0.9059 -0.28299999 -0.39289999
-0.89910001 -0.4337 -0.39269999
-0.8944 0.042599998 0.024499999
-0.8937 -0.72329998 -0.1608
-0.89020002 0.0091000004 -0.1591
-0.89020002 0.026699999 0.1175
-0.88349998 -0.2165 -0.37380001
-0.87910002 -0.65069997 -0.27399999
-0.87260002 0.037500001 -0.061900001
-0.87129998 -0.4831 0.3811
-0.87019998 -0.28420001 0.39399999
-0.8682 -0.066500001 0.278
-0.86790001 0.1295 3.2261
-0.86440003 -0.34630001 0.40220001
-0.85509998 -0.062700003 -0.27200001
-0.85119998 0.0416 -0.0307
-0.84549999 -0.69730002 0.2142
-0.83579999 0.2005 3.2420001
-0.83459997 0.061099999 -3.2146001
-0.83240002 -0.58130002 -0.33160001
-0.83050001 -0.1583 -0.3497
-0.82359999 -0.54089999 -0.35620001
-0.82120001 -0.65109998 0.2744
-0.81840003 0.0285 3.2142999
-0.81480002 -0.082400002 0.2933
-0.81330001 -0.1018 -0.30720001
-0.80699998 -0.7252 0.1573
-0.80470002 -0.6864 0.22840001
-0.79750001 -0.73820001 -0.1248
-0.79180002 -0.72100002 -0.1988
-0.78049999 -0.028200001 0.228
-0.77109998 -0.29539999 0.3955
-0.7701 0.0361 -3.2039001
-0.76920003 0.035 -0.081100002
-0.76859999 -0.53960001 -0.35679999
-0.76429999 -0.1749 0.35749999
-0.76179999 -0.2132 -0.3725
-0.75849998 0.094499998 -3.2137001
-0.75849998 -0.75529999 0.041099999
-0.7511 -0.037900001 3.1930001
-0.74919999 -0.75779998 -0.0211
-0.7432 -0.75120002 -0.071599998
-0.74290001 -0.41119999 0.39660001
-0.7414 0.089400001 3.2149
-0.73159999 -0.2388 -0.3831
-0.73009998 -0.62440002 -0.2985
-0.71990001 -0.6566 0.26730001
-0.71820003 -0.38499999 -0.39910001
-0.70910001 -0.76560003 -0.1734
-0.70880002 -0.50470001 -0.3712
-0.70069999 -0.7392 -0.2331
-0.69980001 -0.41980001 -0.39449999
-0.69950002 -0.191 3.1814001
-0.69940001 -0.0057000001 0.1957
-0.69919997 -0.072499998 0.28569999
-0.69520003 0.00030000001 -0.1805
-0.6947 -0.27379999 -0.3917
-0.69349998 -0.2225 0.37720001
-0.6886 -0.64349997 0.28439999
-0.68629998 -0.4849 0.38029999
-0.68559998 -0.18009999 -3.1694
-0.68400002 -0.13850001 0.33629999
-0.68379998 -0.095700003 -0.3026
-0.68279999 -0.3321 -0.3994
-0.67879999 -0.2766 3.1594
-0.67860001 -0.77029997 0.2129
-0.67519999 0.032400001 -0.1005
-0.67510003 -0.038600001 -0.24070001
-0.67220002 -0.77920002 -0.056699999
-0.67180002 -0.0085000005 3.1954999
-0.65460002 -0.60189998 -0.31580001
-0.65439999 -0.0015 0.1857
-0.65149999 -0.78579998 -0.1815
-0.65130001 -0.070200004 -3.2061
-0.65090001 -0.4824 -0.38049999
-0.6469 -0.3175 0.39840001
-0.6455 0.0287 0.1127
-0.64160001 -0.78869998 0.070200004
-0.63929999 -0.0682 -0.27919999
-0.63599998 -0.30930001 -0.3964
-0.6358 -0.15279999 -3.1677001
-0.62230003 -0.16429999 3.1652
-0.6214 -0.077 3.2012
-0.61970001 -0.2113 0.37259999
-0.6189 -0.2295 -3.1561
-0.61729997 0.0383 0.0572
-0.61129999 0.0451 -0.0044999998
-0.60720003 -0.0055 -0.1944
-0.59859997 -0.066799998 -0.27739999
-0.59579998 -0.066200003 0.27759999
-0.59219998 -0.31169999 -3.1377001
-0.5873 -0.2728 -0.39160001
-0.58660001 -0.64960003 0.3066
-0.58539999 -0.80229998 -0.0041999999
-0.58230001 -0.35589999 2.8684001
-0.57999998 -0.27810001 0.39320001
-0.57590002 -0.79009998 -0.2278
-0.56650001 -0.3448 -3.0223
-0.56590003 -0.18080001 -0.35910001
-0.56290001 -0.75959998 -0.26930001
-0.56169999 -0.58770001 0.3276
-0.55659997 -0.1621 -3.1889
-0.55089998 -0.36039999 -2.8669
-0.54610002 -0.35080001 2.9816
-0.54579997 -0.35179999 -2.9711001
-0.54369998 -0.73589998 0.29910001
-0.54280001 -0.2561 -3.1802001
-0.5399 0.044 -0.0126
-0.53930002 -0.3242 -2.9992001
-0.53899997 -0.3348 -0.3998
-0.53680003 -0.2359 3.1833
-0.53359997 -0.33309999 -2.9396999
-0.53350002 -0.28 3.1382
-0.52810001 -0.1899 3.1830001
-0.52380002 -0.81160003 0.043400001
-0.51590002 -0.8125 -0.1778
-0.51120001 -0.38159999 -2.6768
-0.509 -0.35190001 -2.8043001
-0.50779998 -0.81349999 0.091700003
-0.5072 -0.30790001 -3.0850999
-0.50470001 -0.3504 0.40270001
-0.50209999 -0.36520001 -2.8766999
-0.50139999 -0.26300001 3.1782999
-0.49990001 -0.48559999 -0.37909999
-0.4993 -0.2157 0.37439999
-0.49790001 -0.61809999 -0.32690001
-0.49079999 -0.71600002 0.32390001
-0.48800001 -0.46799999 0.38730001
-0.48570001 -0.3804 2.7291
-0.48519999 -0.28870001 -3.1254001
-0.4833 -0.35389999 3.0046
-0.47960001 -0.39649999 -2.5229001
-0.479 0.042100001 0.027899999
-0.47409999 -0.81709999 -0.1208
-0.47080001 -0.46970001 -2.2214999
-0.4585 -0.80360001 0.2388
-0.45730001 -0.37799999 -2.7890999
-0.45640001 -0.22669999 -0.37810001
-0.45190001 -0.3924 -2.6394
-0.45159999 -0.4905 2.2276001
-0.4513 -0.31200001 3.0265999
-0.45109999 -0.3996 2.5576999
-0.4481 -0.35280001 -3.0309
-0.44710001 -0.35370001 3.0241001
-0.44690001 0.0020000001 0.1772
-0.4366 -0.38620001 -0.3989
-0.43239999 -0.82130003 -0.061700001
-0.4305 -0.37599999 2.5867
-0.42950001 -0.33610001 2.8380001
-0.42919999 -0.33570001 -2.8406999
-0.42750001 -0.2005 -0.36719999
-0.42629999 -0.4111 -2.3831999
-0.42460001 -0.0152 0.2111
-0.42300001 -0.29269999 3.1415
-0.42179999 -0.40990001 2.4814
-0.41890001 -0.505 0.37200001
-0.4145 -0.3899 2.7077
-0.4136 -0.39660001 2.6393001
-0.4131 -0.1076 0.31259999
-0.40959999 -0.3876 -2.7349999
-0.4093 -0.43560001 0.3933
-0.4082 -0.36520001 -2.6314001
-0.40630001 -0.6031 -0.34540001
-0.40180001 -0.42820001 2.2623999
-0.39879999 -0.45089999 2.2313001
-0.3987 -0.3973 -2.6466999
-0.39469999 -0.39430001 2.4444001
-0.39469999 -0.40709999 2.3713
-0.39160001 -0.4086 -2.536
-0.3915 -0.3969 -2.4261
-0.3888 -0.68449998 -0.35370001
-0.3874 -0.41549999 -0.3951
-0.38699999 -0.4043 2.586
-0.38600001 -0.82550001 0.1234
-0.38460001 -0.3725 0.40169999
-0.37900001 -0.37979999 -2.5160999
-0.37799999 -0.41479999 -2.4842
-0.37419999 -0.26570001 0.39160001
-0.37200001 -0.3678 2.9275
-0.368 -0.024499999 -0.22229999
-0.36700001 -0.70910001 0.34760001
-0.36660001 -0.80000001 -0.2692
-0.3646 -0.042599998 0.2467
-0.36320001 -0.41960001 -2.2672999
-0.36160001 -0.44409999 -2.1299
-0.36129999 -0.38839999 2.7592001
-0.36109999 -0.3874 -2.7681
-0.3603 -0.34119999 -3.0359001
-0.3592 -0.4966 -2.2416999
-0.35859999 -0.3186 2.9777
-0.35839999 -0.23379999 -0.38100001
-0.3574 -0.0020000001 0.1869
-0.35710001 0.00050000002 -0.17990001
-0.35640001 -0.32089999 2.9402001
-0.35440001 -0.43380001 2.3016
-0.34830001 -0.18080001 -0.359
-0.34799999 -0.82849997 0.1071
-0.3468 -0.34119999 -0.40059999
-0.3418 -0.36719999 -2.5657001
-0.3418 -0.4021 -2.3473001
-0.3391 -0.38420001 2.8036001
-0.33899999 -0.28510001 0.39410001
-0.33489999 -0.45089999 2.1310999
-0.3348 -0.34400001 2.9971001
-0.3335 -0.63340002 0.37130001
-0.32550001 -0.83020002 -0.049400002
-0.32249999 -0.44459999 -2.0840001
-0.3224 -0.3351 -2.9837
-0.32179999 -0.57169998 -1.5696
-0.31999999 -0.37799999 2.8475001
-0.31920001 -0.43009999 -2.1622
-0.31920001 -0.34889999 2.6815
-0.31889999 -0.35789999 -2.9342
-0.3161 0.037500001 0.063299999
-0.31580001 -0.3777 -0.40009999
-0.31510001 -0.44190001 2.2630999
-0.3132 -0.44029999 2.1973
-0.3125 -0.4481 -2.197
-0.31009999 -0.43959999 -2.2950001
-0.3096 -0.47040001 1.9354
-0.30630001 -0.072099999 -0.2843
-0.30379999 -0.44940001 -2.0369
-0.303 -0.33410001 2.8065
-0.30239999 -0.491 0.37779999
-0.3021 -0.74190003 0.3414
-0.29769999 -0.33070001 -2.9042001
-0.29589999 -0.42449999 -2.4638
-0.29429999 -0.33199999 2.8576
-0.29139999 -0.82169998 -0.23360001
-0.29100001 -0.22319999 0.3775
-0.28439999 -0.44639999 0.3919
-0.28279999 -0.43180001 2.4022
-0.28240001 -0.3529 -2.6343999
-0.2791 -0.639 0.37540001
-0.27630001 -0.38589999 -2.3938999
-0.27129999 -0.4093 2.2397001
-0.27020001 -0.33660001 -2.8334
-0.26730001 -0.56370002 -1.5772001
-0.266 -0.3793 -2.8002999
-0.26530001 -0.46950001 2.0186
-0.26480001 -0.83060002 0.21520001
-0.26449999 -0.46529999 -2.0669999
-0.26429999 -0.169 -0.35420001
-0.26390001 -0.4709 -1.8739001
-0.2617 -0.16509999 0.35350001
-0.26050001 -0.4544 -0.38999999
-0.26010001 -0.83450001 -0.053599998
-0.259 -0.4786 -1.9205
-0.25799999 -0.405 -2.6551001
-0.25670001 -0.44240001 -2.319
-0.2552 -0.8096 -0.27090001
-0.25409999 -0.4427 2.2221999
-0.2502 -0.4842 -2.2402999
-0.243 -0.477 -1.9634
-0.2406 -0.53219998 0.36070001
-0.2402 -0.52209997 -1.5611
-0.2387 -0.49419999 -2.1956
-0.23819999 -0.43340001 2.0632999
-0.2362 -0.45789999 0.39039999
-0.2348 -0.83590001 0.1802
-0.2306 -0.57569999 0.3721
-0.229 -0.49599999 1.7606
-0.2254 -0.4488 2.2814
-0.22490001 -0.37290001 2.4539001
-0.22220001 -0.43610001 -2.0320001
-0.22220001 -0.80159998 0.2969
-0.2217 -0.81489998 -0.26370001
-0.221 -0.39989999 2.2598
-0.2207 -0.48719999 1.878
-0.2155 -0.48109999 -1.765
-0.21510001 -0.27129999 0.39230001
-0.21250001 -0.83700001 -0.045600001
-0.2106 -0.5909 -1.5886
-0.2087 -0.54220003 1.5495
-0.20720001 -0.44850001 -1.9442
-0.20370001 -0.35139999 -2.6745999
-0.20290001 -0.4513 -2.2739
-0.1997 -0.2075 -0.37009999
-0.19859999 -0.44859999 1.9353
-0.197 -0.6954 0.37329999
-0.1961 -0.46399999 -2.1558001
-0.19599999 -0.354 2.6349001
-0.19410001 -0.4677 -2.1205001
-0.19400001 -0.66369998 0.79610002
-0.19329999 0.0418 -0.029200001
-0.19140001 -0.62230003 -0.3813
-0.19069999 -0.36520001 -0.40169999
-0.1899 -0.41240001 -2.1540999
-0.1893 -0.50150001 1.6226
-0.189 -0.47220001 -1.7877001
-0.1882 -0.39160001 2.6752
-0.18799999 0.0447 0.0082999999
-0.1869 -0.8373 -0.1245
-0.17829999 -0.37270001 -2.4359
-0.17829999 -0.40599999 -2.1891
-0.1754 -0.43920001 -2.3959
-0.1752 -0.389 2.3074
-0.1735 -0.44800001 -2.2258999
-0.1728 -0.4061 2.605
-0.1707 -0.40709999 -2.5987999
-0.1692 -0.4456 2.3443
-0.16859999 -0.8373 -0.032499999
-0.16779999 0.0038999999 0.1727
-0.1655 -0.45460001 -1.8684
-0.1584 -0.50929999 -1.712
-0.1565 -0.55659997 1.5458
-0.1551 -0.8373 0.113
-0.1529 -0.4903 -1.6471
-0.15260001 -0.0199 -0.2163
-0.1513 -0.81279999 -0.2802
-0.15109999 -0.52520001 -1.5364
-0.15099999 -0.52829999 -1.5002
-0.1496 -0.58069998 1.5936
-0.1495 -0.37900001 2.651
-0.14579999 -0.50410002 1.7867
-0.1426 -0.41600001 2.5364001
-0.1425 -0.51359999 1.6848
-0.142 -0.4201 -2.5181999
-0.141 -0.37869999 2.3745999
-0.1409 -0.49059999 -1.9364001
-0.13850001 -0.2295 0.38010001
-0.13770001 -0.39449999 2.6082001
-0.1358 -0.4499 0.3915
-0.1345 -0.4621 1.7948
-0.134 -0.48030001 -2.0453
-0.1339 -0.51539999 1.5807
-0.13169999 0.036899999 0.067900002
-0.1302 -0.52539998 -1.4254
-0.12970001 -0.5302 -0.36750001
-0.1277 -0.64709997 0.7845
-0.1275 -0.53259999 1.4857
-0.12530001 -0.56419998 -1.5434999
-0.1235 -0.47459999 2.1069
-0.1217 -0.62819999 -0.80449998
-0.1178 -0.44310001 -2.3784001
-0.1164 -0.4531 -2.2084
-0.1128 -0.5187 -1.6669
-0.1127 -0.43529999 1.9454
-0.1124 -0.54860002 1.279
-0.1058 -0.4278 2.4542
-0.1048 -0.55150002 -1.2943
-0.1045 -0.47710001 -2.0955
-0.098899998 -0.37360001 -2.5425999
-0.094899997 -0.50880003 -1.4818
-0.094499998 -0.1243 0.32539999
-0.092900001 -0.4303 -1.9646
-0.092399999 -0.8373 -0.1576
-0.092200004 -0.52389997 1.3932
-0.086400002 -0.55940002 1.2292
-0.085100003 -0.57359999 -1.081
-0.084700003 0.035799999 0.075800002
-0.083899997 -0.51499999 -1.7402
-0.083300002 -0.6067 0.76349998
-0.0823 -0.4461 1.8513
-0.081699997 -0.56550002 1.1628
-0.080899999 -0.80989999 0.2913
-0.080700003 -0.58789998 -0.38510001
-0.080399998 -0.0057999999 0.19599999
-0.078000002 -0.35960001 0.40329999
-0.077500001 -0.58829999 1.0309
-0.077200003 -0.7058 -0.37529999
-0.075800002 -0.64670002 -1.0361
-0.075400002 -0.39750001 2.1975
-0.073600002 -0.5535 0.37850001
-0.073299997 -0.58099997 -1.0274
-0.071599998 -0.41330001 -2.0727999
-0.071199998 -0.69580001 0.81029999
-0.071000002 -0.5952 0.84780002
-0.070799999 -0.64279997 -0.45039999
-0.070600003 -0.63779998 1.0345
-0.068499997 -0.54299998 1.4527
-0.067000002 -0.53479999 -1.3049001
-0.064099997 -0.65740001 0.33840001
-0.064000003 -0.64590001 0.43059999
-0.061900001 -0.63880002 0.50010002
-0.0612 -0.4562 -2.2169001
-0.060699999 -0.48199999 2.0734999
-0.060699999 -0.42640001 2.4161999
-0.058600001 -0.58139998 -0.95310003
-0.0579 -0.4267 1.9671
-0.057799999 -0.8373 -0.107
-0.053800002 -0.55479997 1.3375
-0.053100001 -0.51160002 0.36930001
-0.0528 0.043400001 0.017999999
-0.0515 -0.068700001 0.28080001
-0.0493 -0.43560001 0.39340001
-0.049199998 -0.58090001 1.0604
-0.0471 -0.8373 0.0164
-0.0436 -0.57099998 1.0222
-0.043000001 -0.6027 -0.86470002
-0.0429 -0.65899998 -0.77490002
-0.040899999 -0.61330003 -0.62010002
-0.039999999 -0.57010001 1.5448999
-0.036499999 -0.51910001 1.5881
-0.035100002 -0.60360003 -0.78140002
-0.034699999 -0.61650002 -0.57749999
-0.034200002 -0.74589998 -0.35699999
-0.033799998 -0.45190001 -1.777
-0.0337 -0.4136 -2.053
-0.033399999 -0.51779997 -1.3674999
-0.032600001 -0.090000004 -0.29820001
-0.031199999 -0.4984 1.9428
-0.030999999 -0.5226 -1.7127
-0.0306 -0.6322 0.42300001
-0.0294 -0.66909999 -0.3416
-0.027100001 -0.5575 -1.5921
-0.026000001 -0.45919999 2.2158999
-0.025900001 -0.59259999 -0.389
-0.024499999 -0.1022 0.30849999
-0.0242 -0.80309999 -0.31290001
-0.023499999 -0.68959999 0.38049999
-0.023399999 -0.69349998 -0.37979999
-0.023 0.0144 0.1473
-0.022500001 -0.6419 -1.063
-0.0222 -0.64539999 -0.81779999
-0.021400001 0.044500001 -0.0087000001
-0.0195 -0.60930002 -0.83240002
-0.018300001 -0.44769999 2.2923999
-0.0176 -0.39320001 2.2514999
-0.0154 -0.5783 -1.1276
-0.0141 -0.59759998 -0.71789998
-0.0136 -0.58609998 1.0569
-0.0129 -0.5068 1.8763
-0.0127 -0.80790001 0.2976
-0.0124 -0.54650003 -1.1812
-0.011 -0.60659999 0.38870001
-0.0099999998 -0.44729999 -2.2864001
-0.0097000003 -0.4366 2.3254001
-0.0096000005 0.037999999 0.059300002
-0.0081000002 -0.53289998 1.2552
-0.0065000001 -0.5959 0.72009999
-0.0034 -0.65499997 0.38870001
-0.0017 -0.60650003 0.81629997
-0.0011 -0.59109998 0.75599998
-0.00019999999 -0.62660003 0.69499999
0.00069999998 -0.29519999 -0.39449999
0.0014 -0.56050003 -1.0396
0.0018 -0.41839999 -2.3583
0.0024999999 -0.2025 -0.368
0.0043000001 -0.39559999 -2.2616
0.0048000002 -0.50849998 -1.8708
0.0068000001 -0.0528 -0.25920001
0.0092000002 -0.48269999 -2.0897
0.0103 -0.49340001 -1.4741
0.0109 -0.51279998 -1.3549
0.0113 -0.6146 -0.5126
0.0117 -0.51950002 -1.774
0.0128 -0.47009999 1.6217999
0.0131 -0.47310001 -2.1496
0.0132 -0.62180001 1.0632
0.0135 -0.42039999 -0.3944
0.0156 -0.73280001 -0.368
0.017999999 -0.54180002 1.5625
0.018200001 -0.6189 0.45910001
0.0184 -0.48789999 -2.0506001
0.0252 -0.45500001 0.3908
0.0253 -0.64649999 -1.068
0.028200001 -0.57010001 1.275
0.0286 -0.40380001 -2.1452
0.030099999 -0.54320002 1.1567
0.035599999 -0.55449998 -1.0394
0.037599999 -0.82489997 -0.2446
0.037599999 -0.65399998 0.48559999
0.0383 -0.6056 -0.54830003
0.0396 -0.58749998 1.5913
0.040100001 -0.45460001 -2.2084999
0.040100001 -0.62029999 -0.40709999
0.040199999 -0.69489998 -0.7999
0.0403 -0.4761 -1.562
0.0403 -1.0567 0.47889999
0.0403 -0.62739998 -0.7367
0.040600002 -0.99870002 -0.71240002
0.0416 -0.51169997 1.8598
0.041900001 -0.64719999 1.0598
0.043200001 -0.55860001 0.9885
0.0449 -1.0854 0.73150003
0.0469 -0.58359998 1.1514
0.0504 -0.54809999 -1.5275
0.050799999 -0.64590001 -0.57679999
0.055399999 -0.44569999 -1.7656
0.058200002 -0.62970001 0.76709998
0.058600001 -0.43110001 -0.39300001
0.059300002 -1.0888 0.55849999
0.0594 -0.61009997 0.91909999
0.0612 -0.75870001 0.3477
0.062600002 -0.49610001 -1.4141001
0.064900003 -0.8373 -0.126
0.065499999 -0.40810001 2.2117
0.065899998 -1.0138 0.65090001
0.0669 -0.63660002 0.68120003
0.067900002 -0.58249998 0.71939999
0.067900002 -0.50220001 1.9466
0.0682 -1.1548001 -0.52670002
0.0691 -0.96630001 0.71530002
0.069600001 -0.69389999 0.78490001
0.07 -0.4928 1.4296
0.071099997 -0.73549998 -0.36579999
0.071099997 -0.56129998 1.4131
0.071500003 -0.53549999 -1.1625
0.072700001 -0.96060002 -0.53320003
0.074100003 -0.47139999 1.5703
0.074299999 -0.51270002 1.299
0.075400002 -0.51840001 -1.8151
0.076099999 -1.1371 0.7324
0.076700002 -0.42719999 -1.9029
0.077699997 -1.1138999 0.65039998
0.0792 -0.60710001 0.96780002
0.0801 -0.45840001 -1.6582
0.0801 -0.48840001 2.0294001
0.080200002 -0.4382 1.8119
0.080300003 -0.7076 0.23800001
0.080300003 -0.79110003 -0.26499999
0.080300003 -0.796 -0.113
0.080300003 -0.74970001 0.22
0.080300003 -0.67449999 -0.1205
0.080300003 -0.80180001 0.22759999
0.080300003 -0.65390003 0.23810001
0.080300003 -0.78060001 -0.20029999
0.082400002 -0.8373 -0.0018
0.083099999 -0.13680001 -0.33410001
0.0832 -0.60189998 -1.0203
0.084299996 -1.0604 -0.57239997
0.0858 -1.0043 -0.66750002
0.087300003 -0.65890002 0.38870001
0.090400003 -0.67619997 -0.33579999
0.090999998 -0.081799999 0.29280001
0.090999998 -0.63270003 0.3136
0.092100002 -0.55680001 0.92820001
0.094300002 -0.45770001 1.6556
0.095600002 -0.77789998 0.069300003
0.096900001 -1.1547 -0.5733
0.097099997 -0.5575 -1.4721
0.0977 -0.72600001 -0.3427
0.098800004 -0.73280001 0.069300003
0.098899998 -0.59280002 1.0290999
0.099100001 -0.59289998 1.1187
0.102 -0.64490002 1.0316
0.1024 -0.76560003 0.59469998
0.1025 -0.63770002 -1.0289
0.1031 -0.47189999 -1.5481
0.1081 -0.46129999 -2.1111
0.1088 -0.57789999 0.69950002
0.1111 -0.56410003 -1.4191
0.1113 -0.2766 0.39300001
0.1126 -0.4375 -1.8065
0.1142 -0.98329997 -0.75160003
0.1149 -0.46270001 2.0987999
0.116 -1.1162 -0.6717
0.1184 -0.65670002 -0.55140001
0.1186 -0.59579998 -1.1104
0.1188 -0.53570002 1.6838
0.1188 -0.4305 -2.1343999
0.1191 -0.63520002 0.77100003
0.1193 -0.70160002 0.069300003
0.1213 -0.27169999 -0.39140001
0.1233 -0.63889998 1.0695
0.1238 -0.47499999 2.0469999
0.1239 -0.68849999 1.0331
0.1251 -0.59020001 1.1684
0.1258 -1.1834 0.69709998
0.1279 -1.0402 -0.66079998
0.1285 -0.93589997 0.509
0.1296 -0.49169999 -1.9761
0.1305 -0.83230001 0.22130001
0.1312 -1.1106 0.65679997
0.1321 -0.67000002 0.44330001
0.1337 -0.055799998 -0.2631
0.1337 -0.47119999 1.5351
0.1339 -0.58329999 -1.2479
0.134 -0.4373 1.8023
0.13420001 -0.43040001 -1.8731
0.13429999 -0.0207 -0.2173
0.13779999 -0.53049999 1.1210999
0.1381 -0.49180001 1.3871
0.13959999 -0.51740003 -1.8354
0.13959999 -0.53219998 1.7207
0.1417 -0.54830003 -0.93940002
0.14210001 -0.67500001 -0.073799998
0.14229999 -0.17389999 0.35710001
0.1425 -0.42500001 1.9872
0.1435 0.0217 0.12980001
0.1436 -0.57840002 0.64130002
0.1443 -0.7888 -0.67220002
0.1468 -0.97939998 0.47600001
0.1472 -0.86129999 0.62040001
0.1477 -0.60600001 -0.389
0.14920001 -0.66439998 -0.51300001
0.15019999 -0.65420002 0.069300003
0.15090001 -0.9691 -0.57630002
0.1522 -0.9346 0.53579998
0.1523 -0.54500002 1.6173
0.1524 -0.57440001 1.3498
0.1534 -0.58770001 0.53619999
0.1542 -0.8373 0.18430001
0.15449999 -1.0082 0.63129997
0.15539999 -0.63270003 -0.193
0.1559 -1.1742001 -0.56999999
0.156 -0.4465 1.7175
0.15629999 -1.1849 -0.51359999
0.1566 -0.4698 -1.5331
0.1568 -0.56519997 -1.4395
0.1595 -0.54009998 -0.99550003
0.15970001 -1.0618 0.62489998
0.15989999 -0.44139999 -2.056
0.16 -1.063 -0.59549999
0.1609 -0.58990002 1.2055
0.1609 -0.68660003 -0.78380001
0.16240001 -0.64090002 -1.03
0.1631 -0.42969999 1.9357001
0.1635 -0.4962 -0.3748
0.1649 -0.59280002 -1.1802
0.1653 -0.60409999 0.37439999
0.1655 -0.73259997 0.35330001
0.1655 -1.135 0.65210003
0.16760001 -0.88410002 -0.60210001
0.1696 -0.63669997 0.35330001
0.17219999 -0.8373 0.066100001
0.1726 -0.9357 -0.5284
0.1728 -0.67470002 0.38100001
0.17380001 -0.74400002 -0.3594
0.1744 -0.1921 0.3646
0.17470001 -0.63550001 -0.8021
0.1758 -0.5747 -0.63069999
0.1785 -0.43239999 -1.9254
0.1796 -0.51730001 1.8186001
0.17990001 -0.47420001 0.38479999
0.18000001 -0.82770002 0.58240002
0.1802 -0.66750002 0.51520002
0.1805 -1.0438 0.54890001
0.1805 -1.1816 0.50029999
0.18099999 -1.0276999 0.72420001
0.18189999 -0.44 -1.7828
0.183 -1.1135 -0.4971
0.1848 -0.52579999 -1.1079
0.1874 -0.75950003 -1.0448
0.1875 -0.3479 0.40239999
0.1876 -0.82459998 -0.073799998
0.18799999 -0.95020002 -0.49939999
0.18880001 -0.81910002 -0.61049998
0.1891 -0.8373 0.1014
0.1893 -0.73949999 -0.073799998
0.1895 -0.076399997 0.28870001
0.1895 -0.022700001 0.2209
0.18960001 -0.97399998 0.58850002
0.19 -0.56339997 -1.473
0.1918 -0.57099998 0.6444
0.1919 -0.58069998 -0.54939997
0.19230001 -0.55650002 0.78820002
0.19239999 -0.1454 -0.3407
0.1937 -0.57880002 1.336
0.1938 -0.98070002 0.62370002
0.1939 -0.75700003 -0.67299998
0.1944 -0.78909999 0.5733
0.1954 -0.55449998 1.5518
0.1957 -0.46669999 -1.5391001
0.1962 -0.81400001 -0.2789
0.1969 -1.1413 0.73409998
0.197 -0.5104 -1.2196
0.1971 -0.71439999 -1.0705
0.1972 -0.58579999 -1.2724
0.1978 -0.60820001 1.0663
0.1992 -0.47209999 1.4947
0.19930001 -0.66360003 -1.0297
0.19930001 -0.47889999 1.4428999
0.19949999 -0.33680001 -0.40000001
0.20020001 -0.63270003 0.38010001
0.20039999 -0.57620001 -1.3638
0.2006 -0.9903 0.55909997
0.2026 -0.8373 -0.1697
0.20290001 -0.98610002 -0.57630002
0.20299999 -0.62419999 -0.92750001
0.204 -0.49149999 1.3477
0.206 -0.51819998 1.7952
0.2062 -0.44760001 -1.7039
0.20640001 -0.53619999 0.97530001
0.208 -0.50569999 1.2447
0.2085 -0.74440002 0.59200001
0.2114 -0.83160001 -0.2236
0.21170001 -0.7597 0.67439997
0.2119 -0.4973 1.3012
0.2124 -0.60399997 -1.1134
0.21269999 -0.95380002 0.66579998
0.2137 -0.77950001 0.6027
0.2138 -0.44010001 -1.9353
0.21430001 -0.62279999 0.6085
0.215 -0.759 -0.54009998
0.2156 -0.71030003 0.3761
0.21619999 -0.55659997 -1.5414
0.2168 -0.60500002 -1.0321
0.2176 -0.51999998 -1.1306
0.2176 -0.4068 -0.3962
0.2177 -0.69739997 -0.60949999
0.2193 -0.61049998 0.52270001
0.21950001 -0.63270003 -0.17479999
0.21969999 -0.64639997 -0.74290001
0.2199 -1.1602 0.54540002
0.2201 -0.64810002 -0.389
0.2202 -1.0156 0.4756
0.2208 -0.56160003 0.69929999
0.2211 -0.57029998 -1.0618
0.22130001 -0.67089999 1.0293
0.2218 -0.8053 -0.30590001
0.22229999 -1.1226 0.47549999
0.22239999 -1.1632 -0.52340001
0.2255 -0.8527 0.59619999
0.2256 -0.8373 0.080600001
0.2261 -0.58590001 -0.61070001
0.2265 -0.5381 0.93159997
0.227 -0.70829999 -0.37709999
0.2272 -0.63940001 0.81169999
0.2291 -0.63270003 0.30489999
0.23119999 -1.012 -0.49259999
0.23119999 -0.63270003 0.2525
0.2314 -0.70520002 -1.0304
0.2331 -0.9641 0.52179998
0.23549999 -0.49020001 1.8716
0.236 -0.59930003 -1.1707
0.23630001 -0.5898 -0.3971
0.2378 -0.54470003 1.635
0.2403 -0.69489998 -1.0776
0.2414 -1.1317 0.6573
0.2438 -0.63270003 0.3678
0.2456 -0.26359999 0.39129999
0.2456 -0.0583 0.26719999
0.24699999 -0.59930003 1.1791
0.2482 -0.227 0.37909999
0.2489 0.035300002 0.079400003
0.2494 -0.6803 0.58880001
0.25260001 -0.80470002 -0.073799998
0.25319999 -0.55949998 -1.5274
0.2538 -0.63270003 -0.3441
0.255 -0.49340001 -1.3062
0.25670001 -0.99150002 -0.52490002
0.25909999 -0.5765 -0.49939999
0.25920001 -0.47870001 -1.4186
0.26030001 -0.60519999 -1.0711
0.26050001 -1.0729001 0.47870001
0.26089999 -0.6318 0.90420002
0.2613 -0.56910002 -0.5711
0.2624 -0.5068 -1.2032
0.2631 -0.6232 0.77780002
0.26370001 -1.0671 -0.67299998
0.26530001 -0.60659999 -1.1259
0.26949999 -0.65249997 -0.073799998
0.2721 -0.52920002 0.97350001
0.27219999 -0.79030001 -1.0554
0.27250001 -0.51899999 -1.732
0.2726 -0.5212 1.0599
0.273 -0.4621 1.5635
0.27410001 -0.72939998 0.37029999
0.27669999 -0.5571 1.0375
0.27770001 -0.63520002 -0.80790001
0.2784 -0.67309999 -0.78729999
0.28 -0.69059998 0.069300003
0.28169999 -0.7385 -0.3635
0.28200001 -0.60009998 -0.3283
0.28240001 -0.60369998 1.0465
0.2827 -0.45449999 -1.7266001
0.28299999 -0.62919998 0.94139999
0.2841 -0.1118 -0.31490001
0.2843 -0.57349998 1.4211
0.2845 -0.63270003 0.2163
0.2861 -0.57050002 0.52499998
0.28830001 -0.54979998 0.73689997
0.2886 -0.8373 0.15629999
0.2888 -0.5406 -0.833
0.28889999 -0.7845 1.071
0.29210001 -0.45699999 1.6815
0.2924 -0.4948 1.2771
0.2929 -0.52520001 1.688
0.2983 -0.55309999 0.69120002
0.2994 -0.67079997 1.0268
0.30019999 -0.56059998 -1.5164
0.30109999 -0.54939997 -1.5765001
0.3019 -0.7112 -0.336
0.30289999 -0.57990003 1.3738
0.30469999 -0.6785 0.3529
0.30559999 -0.6358 0.38870001
0.3096 -0.27579999 0.39289999
0.31020001 -0.1201 0.3222
0.31099999 -0.48570001 1.3434
0.31200001 0.035999998 0.074500002
0.31330001 -0.6336 0.92259997
0.3136 -0.6002 -1.2056
0.31420001 -0.46250001 -1.6137
0.3143 -0.62769997 1.0716
0.3204 -0.61089998 1.1174001
0.3206 -0.49360001 1.7451
0.32080001 -0.56260002 -0.56599998
0.32089999 -0.61210001 -1.1078
0.32139999 -0.42230001 -0.3942
0.32159999 -0.47490001 1.437
0.32179999 -0.82740003 -0.237
0.32210001 -0.58270001 1.013
0.32260001 -0.65570003 -0.73710001
0.3238 -0.63270003 -0.1168
0.32480001 -0.7482 0.3484
0.32499999 -0.56190002 -1.0655
0.32600001 -0.52670002 0.94660002
0.3281 -0.63690001 1.0246
0.32890001 -0.634 -0.92799997
0.3308 -0.8373 -0.059999999
0.33109999 -0.66299999 -0.68010002
0.33199999 -0.57880002 0.38659999
0.33309999 -0.62760001 -0.389
0.33329999 -0.63270003 -0.21950001
0.3337 -0.62669998 0.78780001
0.33700001 -0.8373 0.1065
0.33719999 -0.54619998 1.5621001
0.34110001 -0.5316 0.87730002
0.3423 -0.49810001 -1.2307
0.34279999 -0.80220002 0.31420001
0.34459999 -0.59109998 0.3301
0.3477 -0.68879998 -0.073799998
0.34920001 -0.64539999 -0.787
0.3506 -0.4743 1.4619
0.35100001 -0.015799999 -0.21089999
0.3511 -0.55379999 -0.62480003
0.35120001 -0.5341 1.5954
0.35139999 -0.27770001 0.39309999
0.35299999 -0.63929999 -0.8962
0.35350001 -0.64099997 0.88160002
0.35530001 -0.8373 -0.1621
0.35699999 -0.76740003 -0.25170001
0.35699999 -0.73589998 -0.3096
0.35699999 -0.70740002 0.1145
0.35699999 -0.67290002 -0.1649
0.35699999 -0.64340001 0.28009999
0.35699999 -0.79900002 -0.30759999
0.35699999 -0.74440002 -0.1217
0.3574 -0.67269999 0.61260003
0.3585 -0.57200003 0.42399999
0.36070001 -0.6706 1.0249
0.36109999 0.0163 0.1428
0.3642 -0.55000001 1.0592999
0.36590001 -0.55830002 -1.0213
0.36629999 -0.60399997 -1.1935
0.36700001 -0.88929999 1.0204
0.3673 -0.81470001 0.27610001
0.36770001 -0.77560002 1.0804
0.36930001 -0.47299999 1.6296999
0.3698 -0.52939999 -1.5912
0.37090001 -0.71569997 0.37450001
0.3714 -0.38730001 0.39969999
0.37329999 -0.83179998 0.2228
0.37670001 -0.47870001 1.4274
0.3784 -0.64359999 1.0745
0.37889999 -0.5851 0.33579999
0.3809 -0.69749999 -0.41280001
0.38240001 -0.6825 -1.0789
0.38440001 -0.55309999 0.59780002
0.38460001 0.0396 -0.0462
0.38870001 0.043900002 0.0146
0.3892 -0.71539998 -1.0258
0.3926 -0.51529998 1.0261
0.39309999 -0.5553 -0.56489998
0.39610001 -0.57920003 1.3641
0.39770001 -0.56650001 0.43900001
0.39789999 -0.79070002 -0.98500001
0.39840001 -0.78390002 -0.32859999
0.39989999 -0.8373 -0.1718
0.40009999 -0.6268 1.0203
0.4003 -0.8373 0.041000001
0.40189999 -0.54540002 -0.66589999
0.40220001 -0.88569999 -1.0898
0.40869999 -0.50209999 1.5786
0.41150001 -0.64609998 -0.86699998
0.4127 -0.54390001 0.67229998
0.41280001 -0.53570002 0.76550001
0.41350001 -0.7058 0.37940001
0.414 -0.12710001 -0.32659999
0.4156 -0.5582 -0.50980002
0.41659999 -0.50330001 -1.164
0.41870001 -0.65939999 -1.077
0.4237 -0.68809998 -0.5212
0.42539999 -0.52179998 0.92189997
0.4262 -0.60530001 1.1957999
0.42629999 -0.81669998 0.26989999
0.42789999 -0.8373 0.1251
0.428 -0.57789999 -1.3474
0.4285 -0.63239998 -0.98540002
0.4312 -0.49380001 1.5296
0.4314 -0.65130001 -0.83340001
0.4316 -0.071400002 -0.2834
0.4321 -0.52740002 -0.84899998
0.43560001 -0.86449999 -0.97430003
0.43579999 -0.89310002 -0.99860001
0.4359 -0.55159998 0.56370002
0.43810001 -0.8373 0.17550001
0.4384 -0.6006 -1.2235
0.4384 -0.5607 -0.45930001
0.43869999 -0.55809999 -1.4166
0.43979999 -0.67559999 0.63499999
0.44029999 -0.84759998 0.96710002
0.44150001 -0.67150003 -0.67089999
0.44389999 -0.57370001 -0.389
0.44510001 -0.74949998 1.0543
0.44800001 -0.4181 0.39570001
0.45159999 -0.63690001 -0.95670003
0.4522 -0.53259999 0.77130002
0.45320001 -0.7633 -0.9964
0.45719999 -0.1506 -0.34470001
0.46160001 -0.50410002 1.1562999
0.4619 -0.8373 0.1116
0.46219999 -0.49360001 1.3312
0.46270001 -0.51700002 -0.38730001
0.46290001 -0.69849998 -0.4542
0.463 -0.49540001 1.2862
0.463 -0.7101 -0.3766
0.46340001 -0.50830001 1.4723001
0.46450001 -0.2095 0.37180001
0.46450001 -0.8373 -0.14120001
0.46509999 -0.1069 0.31209999
0.4657 -0.89060003 0.9853
0.46610001 -0.8545 -1.1265
0.46919999 -0.79009998 -1.0484999
0.46939999 -0.55650002 -0.47799999
0.47099999 -0.52950001 -0.796
0.47099999 -0.66049999 0.77420002
0.47150001 -0.85549998 1.1273
0.47170001 -0.80739999 -1.1288
0.4718 -0.2043 -0.36880001
0.47229999 -0.54970002 -1.0930001
0.4729 -0.49779999 -1.2599
0.47299999 -0.51590002 0.97130001
0.4738 -0.4479 -0.3908
0.47589999 0.0136 -0.14839999
0.47620001 -0.50809997 -1.0846
0.47850001 -0.0341 0.2357
0.47870001 -0.76740003 -0.34130001
0.47870001 -0.69870001 0.46059999
0.48030001 -0.2834 -0.39300001
0.4817 -0.8373 0.0017
0.4817 -0.52350003 -0.86409998
0.48199999 -0.73699999 -1.0237
0.4826 -0.49689999 1.3963
0.4858 -0.62360001 -1.0649
0.4901 -0.4984 -1.3705
0.49239999 -0.63099998 1.0750999
0.49450001 -0.7906 -0.96319997
0.49489999 -0.57539999 0.32570001
0.4957 -0.6717 0.69300002
0.4975 -0.63789999 -0.389
0.49779999 -0.53299999 -0.73360002
0.49779999 -0.6771 -1.0803
0.50190002 -0.88239998 -1.1206
0.50269997 -0.53479999 1.048
0.50300002 -0.7766 1.1205
0.50330001 -0.54030001 -0.63950002
0.50440001 -0.55409998 1.3565
0.50489998 -0.50639999 -1.1616
0.50660002 -0.66170001 0.7766
0.50840002 -0.54439998 -1.0819
0.50999999 0.0274 -0.1149
0.51160002 -0.91589999 -1.0073
0.51230001 -0.68879998 -0.55930001
0.5133 -0.50590003 1.3633
0.51340002 -0.4813 -0.3809
0.51370001 -0.6983 0.37979999
0.514 -0.54519999 0.57160002
0.51660001 -0.43360001 0.39359999
0.51770002 -0.64490002 -0.91180003
0.51810002 -0.55440003 -0.4594
0.51950002 -0.60280001 -0.389
0.52329999 -0.75919998 1.0899
0.5237 -0.25569999 0.39019999
0.52829999 -0.1068 -0.31110001
0.5284 -0.5212 0.87220001
0.52929997 -0.6785 0.64969999
0.52929997 -0.50669998 1.2749
0.5323 -0.73989999 0.36219999
0.53310001 -0.56050003 1.3029
0.53430003 -0.7313 -1.0387
0.5359 -0.57029998 -1.2687
0.53820002 -0.51239997 -1.039
0.53939998 -0.63770002 -0.96259999
0.5399 -0.82389998 -0.24789999
0.54280001 -0.78469998 -1.0867
0.54350001 -0.64910001 0.88450003
0.54689997 -0.82050002 0.9443
0.54689997 -0.62919998 0.38870001
0.55000001 -0.75120002 -0.3538
0.55269998 -0.51179999 -1.2539001
0.55369997 -0.32550001 0.3994
0.55369997 -0.034200002 0.2358
0.55589998 -0.78799999 0.3251
0.55650002 0.036600001 0.069499999
0.55650002 -0.59829998 -0.389
0.5571 -0.81019998 -0.29080001
0.55909997 -0.51789999 0.926
0.56029999 -0.54790002 1.0930001
0.56089997 -0.65390003 0.85049999
0.56220001 -0.70969999 0.40869999
0.56269997 -0.78240001 1.0226001
0.56440002 -0.67040002 0.7252
0.56489998 -0.8373 0.1857
0.56870002 0.00060000003 0.1807
0.57139999 -0.60949999 -1.0865999
0.57359999 -0.0055 -0.1945
0.5751 -0.51639998 0.99379998
0.57560003 -0.71820003 0.3716
0.57630002 -0.90799999 1.1191
0.57709998 -0.5169 -1.1969
0.57779998 -0.237 0.38319999
0.5808 -0.6656 0.76660001
0.58270001 -0.66479999 -0.77359998
0.58310002 -0.58710003 -1.0066
0.58319998 -0.8373 -0.1018
0.58350003 -0.73049998 1.0880001
0.5837 -0.9368 1.0645
0.58389997 -0.67500001 -0.3872
0.58520001 -0.72140002 -1.0528001
0.58630002 -0.56410003 -1.228
0.59130001 -0.73150003 -0.99540001
0.59320003 -0.70050001 -1.0846
0.59350002 -0.54619998 0.50470001
0.59420002 -0.73720002 -1.0887001
0.5948 0.0416 0.032200001
0.59500003 -0.5614 -1.0930001
0.59689999 -0.76660001 -0.34189999
0.59969997 -0.77469999 0.33539999
0.60030001 -0.93779999 -1.077
0.60039997 -0.53789997 -0.6099
0.60070002 -0.80809999 -0.29719999
0.60070002 -0.76889998 1.1390001
0.60219997 -0.55849999 -0.99620003
0.60399997 -0.51950002 1.0368
0.60420001 -0.5194 -1.0173
0.6045 -0.52090001 1.1078
0.60820001 -0.27489999 -0.3919
0.61009997 -0.7112 -0.4152
0.61229998 -0.6196 -1.0065
0.61330003 -0.77249998 0.99940002
0.61430001 -0.53240001 -1.1756001
0.61479998 -0.52100003 -0.96499997
0.61489999 -0.5729 -1.1673
0.61500001 -0.19310001 0.3651
0.62279999 -0.54879999 0.38870001
0.62339997 -0.66229999 -0.78479999
0.6279 -0.62529999 1.0143
0.62870002 -0.83130002 -0.2247
0.63169998 -0.54879999 0.44729999
0.63340002 -0.75050002 -0.9569
0.6347 -0.72299999 0.36669999
0.63739997 -0.52819997 -0.75800002
0.63779998 -0.55089998 -1.1389
0.64039999 -0.759 1.1414
0.6437 -0.8373 -0.1904
0.64389998 -0.36899999 -0.4012
0.6455 0.042100001 -0.0274
0.64609998 -0.2369 0.38319999
0.64810002 -0.59149998 1.0700001
0.65219998 -0.0359 0.23800001
0.65920001 -0.68000001 -0.66369998
0.65969998 -0.52780002 -0.81590003
0.66079998 -0.68629998 -1.0842
0.662 -0.6541 0.80879998
0.66280001 -0.6498 -0.82959998
0.66540003 -0.70520002 -1.0388
0.6663 0.045499999 0.0019
0.66839999 -0.66030002 -0.389
0.6724 -0.56 1.0759
0.67369998 -0.54720002 -0.44690001
0.67400002 -0.52899998 0.83840001
0.67690003 -0.6239 -0.92559999
0.67799997 -0.5442 -1.0470001
0.67839998 -0.8624 -1.1694
0.67909998 -0.29890001 -0.39500001
0.6796 0.0038999999 -0.1717
0.6803 -0.8373 0.1331
0.68489999 -0.60119998 -0.9957
0.68839997 -0.54680002 0.4454
0.68910003 -0.4763 -0.38299999
0.68989998 -0.76109999 -1.0561
0.69419998 -0.95770001 1.011
0.69489998 -0.8373 0.0253
0.69630003 -0.081299998 0.2924
0.69760001 -0.1912 0.3642
0.70200002 -0.71170002 -0.43830001
0.70300001 -0.5632 1.0199
0.70590001 -0.53670001 0.62510002
0.70910001 -0.90990001 0.9375
0.70920002 -0.53390002 0.84130001
0.71069998 -0.70279998 1.0031
0.71069998 -0.58170003 0.38870001
0.71130002 -0.61729997 -0.91189998
0.71149999 -0.72539997 -1.1284
0.71649998 -0.74440002 1.0915999
0.71670002 -0.77710003 -0.92079997
0.71799999 -0.65319997 -1.0219001
0.71829998 -0.97420001 -0.94690001
0.7184 -0.5438 0.9763
0.71899998 -0.70730001 0.47310001
0.71920002 -0.71929997 -0.39109999
0.72060001 -0.71160001 -0.91149998
0.72119999 -0.53560001 -0.71340001
0.72229999 -0.53649998 -0.66729999
0.72240001 -0.8373 -0.1557
0.72250003 -0.4161 -0.39500001
0.72329998 -0.76910001 1.1673
0.72409999 -0.9386 1.1287
0.72509998 -0.78469998 0.91579998
0.72549999 -0.75510001 1.0494
0.72729999 -0.55290002 -1.026
0.72869998 -0.68959999 -0.58179998
0.7288 -0.6638 1.0129
0.73189998 -0.95190001 -0.97670001
0.73269999 -0.97719997 1.1454
0.73400003 -0.64960003 0.76789999
0.736 -0.74629998 -0.93430001
0.73760003 -0.7464 -1.2069
0.73769999 -0.62110001 0.86940002
0.73830003 -0.58829999 -0.389
0.73839998 -0.83539999 -1.1851
0.73879999 -0.88660002 0.91710001
0.74260002 -0.20460001 -0.3689
0.74260002 -0.048999999 0.25510001
0.74440002 -0.79799998 -0.31779999
0.74919999 -0.45750001 -0.38960001
0.7493 -0.1688 -0.35409999
0.75080001 -0.81379998 0.86119998
0.75099999 -0.0141 -0.2087
0.75260001 -0.54640001 -0.4445
0.75449997 -0.67299998 0.64840001
0.75480002 -0.54659998 0.903
0.75580001 -0.91229999 1.1626
0.75730002 -0.84329998 -0.85970002
0.75749999 -0.67390001 -0.3838
0.76090002 0.040100001 -0.041999999
0.76090002 -0.84549999 -0.9016
0.76359999 -0.92809999 -0.9375
0.76700002 -0.82889998 -0.2323
0.76929998 0.019300001 -0.1345
0.77149999 -1.0163 -1.0215
0.7719 -0.64889997 -0.98369998
0.7737 -0.80000001 0.90109998
0.77539998 -0.97799999 1.0379
0.77590001 -0.72960001 0.3642
0.77640003 -0.97710001 -1.0290999
0.77719998 -0.6401 -1.074
0.77810001 -0.9763 -1.0694
0.77880001 -0.97130001 0.917
0.78119999 -0.5952 0.87379998
0.78170002 -0.81230003 -0.2841
0.78509998 -0.70829999 -0.44890001
0.78509998 -0.2159 0.37450001
0.78680003 -0.89899999 -1.1783
0.78759998 0.0073000002 -0.1635
0.78860003 -0.91170001 1.2201999
0.78939998 -0.53479999 -0.389
0.79000002 -0.5654 -0.85619998
0.79269999 -0.54500002 0.64099997
0.79650003 -0.7256 -0.37239999
0.79729998 -0.8373 -0.093199998
0.80190003 -0.45500001 0.3908
0.8028 -0.91710001 1.171
0.80610001 -0.67510003 0.38119999
0.80800003 -0.84960002 0.8926
0.80870003 -0.5499 -0.4183
0.80909997 -0.54710001 -0.58759999
0.80949998 -0.79210001 1.239
0.81389999 -0.63510001 1.0043
0.81480002 -0.74010003 -1.0326999
0.8161 -0.38940001 0.3994
0.8179 -1.0052 1.1385
0.8193 -0.67839998 -1.0808001
0.82139999 -0.2221 -0.3761
0.82260001 -0.54979998 0.46439999
0.82270002 -0.55159998 0.36680001
0.82270002 -0.048599999 0.25459999
0.82520002 -0.66170001 0.6293
0.82639998 -0.93529999 -1.2151999
0.83179998 -0.62849998 -1.0388
0.83279997 -0.0986 -0.3048
0.83380002 -0.76550001 0.34240001
0.83569998 -0.8373 0.048900001
0.83670002 -0.67229998 0.92019999
0.83700001 -0.69410002 -0.37650001
0.83890003 -0.7022 1.011
0.84100002 -1.0053999 -1.1467
0.84539998 -0.91229999 -0.90439999
0.8466 -0.56599998 0.38870001
0.84850001 -0.9576 -0.94440001
0.85030001 -0.67030001 1.0235
0.85070002 -0.9472 0.93010002
0.85089999 -0.9752 1.1885
0.85110003 -0.84570003 -0.84259999
