# .PCD v0.7 - Point Cloud Data file format
VERSION 0.7
FIELDS x y z
SIZE 4 4 4
TYPE F F F
COUNT 1 1 1
WIDTH 519
HEIGHT 1
VIEWPOINT 0 0 0 1 0 0 0
POINTS 519
DATA ascii
-0.12901518 -0.19310001 -2.271811
-0.18877897 -0.18920001 -2.279043
-0.19858083 -0.12270001 -2.3179317
-0.0077418387 -0.16839999 -2.2727847
-0.19467607 -0.2013 -2.1541212
-0.0068773031 -0.19729999 -2.199928
-0.17712352 -0.1701 -2.4052849
-0.25549027 -0.19240001 -2.1891937
-0.15738758 -0.19800001 -2.1119554
-0.28779873 -0.13589999 -2.2595522
-0.098116249 -0.2031 -2.1046369
-0.045230895 -0.2062 -2.1225932
0.011511952 -0.14559999 -2.1779881
-0.13891533 -0.12360001 -2.4367983
-0.23542288 -0.2342 -2.112818
-0.31923899 -0.17449999 -2.3249867
-0.15572444 -0.15599999 -2.0748811
-0.30391142 -0.18959999 -2.1562855
-0.21633556 -0.24419999 -2.0707941
-0.21938357 -0.15709999 -2.4796767
-0.34421167 -0.1521 -2.2022865
0.055988818 -0.20460001 -2.131911
-0.16747156 -0.21399999 -2.0389962
-0.1610705 -0.16240001 -2.0383987
0.039626867 -0.22310001 -2.0692174
-0.2892575 -0.1981 -2.0593576
-0.15937218 -0.2177 -2.00458
-0.35139462 -0.16960001 -2.1197853
0.05565542 -0.15380001 -2.0675759
-0.40684006 -0.1469 -2.2712588
-0.40363416 -0.16479999 -2.3308203
-0.34301004 -0.2466 -2.0952692
-0.06679216 -0.22710001 -1.9955184
-0.28981271 -0.18009999 -2.0239227
-0.38213643 -0.11719999 -2.4173684
-0.41015831 -0.12979999 -2.3620622
-0.43366185 -0.1611 -2.2229676
-0.030450165 -0.16330001 -1.9788761
-0.31513366 -0.155 -2.5199618
-0.33556846 -0.1029 -2.4953392
-0.4260225 -0.1586 -2.379472
0.046187639 -0.23269999 -2.0095503
-0.26504472 -0.10139999 -2.5485947
-0.087126851 -0.23030001 -1.9409584
0.010312289 -0.1636 -1.9659584
0.14636052 -0.1805 -2.072603
-0.21941242 -0.21529999 -1.9396677
-0.32595977 -0.19409999 -1.984751
0.13986906 -0.21129999 -2.0477991
0.062037498 -0.23789999 -1.9726419
-0.27948329 -0.19459999 -1.9463378
-0.17167738 -0.18610001 -1.9125448
-0.44940689 -0.21970001 -2.0559969
-0.25288853 -0.19940001 -1.9032007
-0.45223746 -0.1473 -2.4872572
-0.51041079 -0.14649999 -2.3512897
-0.45893636 -0.11520001 -2.47054
-0.032637835 -0.1803 -1.8686213
0.20045011 -0.19139999 -2.0025311
-0.50336158 -0.1424 -2.47083
-0.18024912 -0.227 -1.841375
-0.14165893 -0.19850001 -1.8286834
-0.07501173 -0.24059999 -1.8325148
-0.3482258 -0.1293 -2.6615665
-0.43628958 -0.1374 -2.613342
-0.47830495 -0.1376 -2.5723228
0.18448494 -0.24169999 -1.9185834
-0.18855652 -0.2286 -1.7963485
-0.3581098 -0.086600006 -2.6934345
-0.56825519 -0.13159999 -2.4973645
-0.087429941 -0.20460001 -1.761276
0.14509964 -0.17719999 -1.8373095
-0.18529007 -0.2209 -1.7496055
0.079866052 -0.25849998 -1.7932119
-0.53467476 -0.12799999 -2.6173179
0.24144597 -0.18239999 -1.8771451
0.27449057 -0.19010001 -1.8930243
0.20690081 -0.18040001 -1.817947
-0.3974863 -0.08070001 -2.7583835
-0.51596189 -0.085700005 -2.6730134
-0.5882287 -0.10190001 -2.6233094
-0.096559495 -0.22220001 -1.6777214
-0.4235737 -0.10789999 -2.7842467
0.15906572 -0.26840001 -1.7506176
0.21876529 -0.26740003 -1.7817575
0.058140695 -0.20190001 -1.6941341
0.19719392 -0.1875 -1.748608
-0.11871508 -0.23109999 -1.6507645
0.10347039 -0.26950002 -1.6990807
-0.5940057 -0.11520001 -2.6958077
0.14796513 -0.19569999 -1.6983966
0.015192091 -0.26499999 -1.6491934
-0.43561611 -0.085099995 -2.8323867
-0.6403625 -0.11039999 -2.6776824
0.26955655 -0.19 -1.7373018
-0.053279191 -0.25929999 -1.608485
0.072063714 -0.2726 -1.6312971
-0.6359669 -0.083099991 -2.7523804
-0.48200473 -0.091199994 -2.8772125
-0.00054046512 -0.2687 -1.5719886
-0.03659299 -0.2403 -1.545526
-0.65343416 -0.10179999 -2.7811854
-0.56760263 -0.10280001 -2.8570421
0.19093968 -0.20840001 -1.5969175
0.30718824 -0.19760001 -1.6638203
0.36760148 -0.26899999 -1.7030061
-0.65191257 -0.074200004 -2.8099871
0.37858421 -0.20449999 -1.6994596
-0.68271053 -0.094799995 -2.8280127
0.096846461 -0.3075 -1.5132066
-0.083258003 -0.3409 -1.4778954
-0.63521647 -0.057900012 -2.9001558
-0.137117 -0.31370002 -1.4568226
-0.10763296 -0.27209997 -1.4456731
0.16844928 -0.2261 -1.4952679
0.008577615 -0.31419998 -1.4482926
-0.18946931 -0.32169998 -1.4398743
-0.015597492 -0.27520001 -1.4368204
-0.62054873 -0.038700014 -2.9436641
0.23270893 -0.22189999 -1.492484
0.1843867 -0.29809999 -1.4630457
0.42921054 -0.21250001 -1.5937446
-0.0092129707 -0.27829999 -1.4011878
0.28800088 -0.2198 -1.4870021
0.32546496 -0.21669999 -1.4997007
0.04922989 -0.25880003 -1.3928088
-0.72805905 -0.061699986 -2.937197
0.34525412 -0.30659997 -1.5055254
0.42276925 -0.29939997 -1.554835
0.15416875 -0.24340001 -1.4034938
-0.68678963 -0.006099999 -2.9876294
0.48787293 -0.27939999 -1.5812411
0.38412309 -0.30949998 -1.4981631
0.23999736 -0.3075 -1.4165968
-0.75754845 0.020500004 -2.950681
0.024259925 -0.27539998 -1.331136
-0.70189071 0.087899998 -2.9938009
0.3313297 -0.31339997 -1.4336151
0.43231919 -0.31059998 -1.4954916
0.21609308 -0.24610001 -1.353487
0.30445132 -0.31519997 -1.3948587
-0.77620614 0.097200006 -2.9591701
0.262988 -0.31410003 -1.3668331
-0.82554471 0.069900006 -2.9521966
0.12964356 -0.26779997 -1.2909247
0.40892488 -0.22870001 -1.3920579
0.17545849 -0.26279998 -1.2862089
-0.79813874 0.1798 -2.9942951
0.36053407 -0.32620001 -1.32788
0.10742435 -0.28479999 -1.2234412
0.072039336 -0.30150002 -1.2064383
0.58604515 -0.30809999 -1.4212582
0.42430669 -0.24340001 -1.2806362
-0.91475189 0.2861 -2.9714992
0.37325415 -0.33579999 -1.2373129
0.3151702 -0.33329999 -1.2021931
0.58752418 -0.32789999 -1.3512514
0.64466947 -0.2484 -1.384784
-0.90502977 0.34450001 -2.9831645
0.38222581 -0.2604 -1.1852802
0.18267515 -0.29650003 -1.1111017
-0.98013008 0.31110001 -2.9708362
0.26854774 -0.28549999 -1.107255
0.44948006 -0.2568 -1.180486
0.52339089 -0.24810001 -1.2214427
0.35745525 -0.34280002 -1.1409047
0.49948549 -0.3502 -1.1917404
0.18902828 -0.3283 -1.0577949
0.64693624 -0.24779999 -1.2728776
0.42912471 -0.34930003 -1.1438954
0.55348599 -0.35399997 -1.1889755
0.61928117 -0.3506 -1.2310398
0.70745105 -0.32029998 -1.2924837
0.41796756 -0.26999998 -1.1012095
0.32397929 -0.34579998 -1.0641252
0.12847918 -0.32359999 -0.99979967
0.38960767 -0.27579999 -1.0731587
0.72656578 -0.26179999 -1.2808259
0.41583329 -0.35399997 -1.0833678
0.46575904 -0.35659999 -1.104864
0.6081444 -0.25330001 -1.1686581
0.19325383 -0.3919 -0.99294347
0.2394594 -0.39649999 -1.006168
0.22085409 -0.31050003 -0.97404915
0.25456923 -0.30449998 -0.97979099
0.76415288 -0.31410003 -1.2611539
0.52365732 -0.36210001 -1.0966938
0.14543471 -0.39670002 -0.95719677
0.14940748 -0.33099997 -0.94906306
0.43336135 -0.32029998 -1.0340625
0.69551969 -0.25639999 -1.1816276
0.47035089 -0.35519999 -1.0500282
0.40821522 -0.46439999 -1.0384628
0.44952601 -0.44489998 -1.0529566
0.76049304 -0.2669 -1.2289288
0.32227618 -0.38770002 -0.9810676
0.30476278 -0.35189998 -0.96924692
0.53504038 -0.31190002 -1.0557485
0.38107514 -0.39090002 -0.99255246
0.43428403 -0.35500002 -1.0040669
0.41746664 -0.41360003 -0.99866468
0.40312535 -0.50950003 -1.0114689
0.80082661 -0.28240001 -1.2144121
0.5892415 -0.4325 -1.0789121
0.38421008 -0.29009998 -0.95807296
0.44895741 -0.45520002 -1.0049282
0.67532718 -0.29970002 -1.108409
0.80285877 -0.3229 -1.2063423
0.48479635 -0.54030001 -1.0366333
0.6253199 -0.40939999 -1.0833445
0.68062663 -0.25809997 -1.1008137
0.66851974 -0.55739999 -1.1435609
0.17678618 -0.33139998 -0.87844449
0.66340423 -0.6045 -1.1403234
0.71280634 -0.29439998 -1.1037463
0.58299428 -0.30830002 -1.0193219
0.70264518 -0.4271 -1.1003299
0.83034241 -0.30089998 -1.1823504
0.69350165 -0.37360001 -1.0830802
0.60684788 -0.63569999 -1.0930848
0.37642217 -0.29830003 -0.89973432
0.69968486 -0.63239998 -1.1407295
0.60515887 -0.46539998 -1.0277997
0.77403301 -0.35949999 -1.1193147
0.7961632 -0.3114 -1.1297157
0.91681826 -0.4964 -1.2666473
0.74585021 -0.53469998 -1.1144469
0.74960303 -0.26239997 -1.0666728
0.68000168 -0.54009998 -1.0640466
0.43885726 -0.37419999 -0.89865977
0.7958492 -0.45050001 -1.1211306
0.79612195 -0.48720002 -1.125342
0.86502939 -0.6124 -1.2194371
0.65087718 -0.38239998 -0.99483782
0.69691372 -0.48699999 -1.0418462
0.74581444 -0.4813 -1.0657001
0.92139161 -0.58539999 -1.2453175
0.2074997 -0.3527 -0.79409641
0.62081152 -0.54070002 -0.9891302
0.79349267 -0.47140002 -1.0884246
0.90474606 -0.47539997 -1.1848077
0.6732918 -0.5133 -1.0099598
0.56275773 -0.384 -0.92101443
0.86249161 -0.43629998 -1.1324753
0.81836855 -0.2694 -1.0567632
0.67860997 -0.38690001 -0.97058505
1.0448123 -0.50019997 -1.3170389
0.79944718 -0.33710003 -1.0425618
0.65577412 -0.64310002 -1.009105
0.88589001 -0.2942 -1.0988272
0.2362515 -0.35930002 -0.76636785
0.82006288 -0.30849999 -1.0356364
0.82822084 -0.3696 -1.0475338
0.80416095 -0.68779999 -1.114879
0.65979683 -0.61449999 -0.98513931
0.5920136 -0.38929999 -0.89388245
1.0890148 -0.51990002 -1.3387443
0.97023714 -0.64899999 -1.2470254
0.76405156 -0.38770002 -0.9916417
0.87490535 -0.45520002 -1.0885638
0.23612779 -0.39539999 -0.75152075
1.0028279 -0.68529999 -1.2902411
0.71972954 -0.5406 -0.98443586
0.80946743 -0.48150003 -1.0329558
0.72891182 -0.66589999 -1.0308353
0.896029 -0.51109999 -1.1098554
1.0606071 -0.57620001 -1.3000231
0.14044896 -0.37819999 -0.7211448
1.0535538 -0.66579998 -1.3175648
0.83788931 -0.27100003 -1.0070984
0.97889435 -0.3901 -1.1426429
0.93808758 -0.30290002 -1.0867071
0.53976357 -0.2906 -0.82049447
1.0587773 -0.44440001 -1.223442
0.30068809 -0.44489998 -0.74472833
0.90159333 -0.35119998 -1.0495048
0.92964089 -0.40319997 -1.0810546
0.22974455 -0.35360003 -0.71343374
0.75150263 -0.39490002 -0.93784541
1.0872403 -0.66960001 -1.3263478
0.65469539 -0.39609998 -0.87528449
0.43276271 -0.38550001 -0.77025062
1.019174 -0.42839998 -1.1566503
0.22319178 -0.40899998 -0.70567799
0.6781081 -0.27740002 -0.86113507
0.72433251 -0.27350003 -0.8846187
1.1053636 -0.38910002 -1.2241422
0.53319073 -0.38520002 -0.79384828
0.85761333 -0.50050002 -1.0023514
0.42235011 -0.43660003 -0.74983227
1.2036859 -0.48229998 -1.3512467
1.2053283 -0.5596 -1.3741803
1.0387774 -0.37849998 -1.1174588
1.103197 -0.34930003 -1.1817214
0.68012762 -0.40130001 -0.84565061
0.53745729 -0.42309999 -0.77368277
1.029101 -0.75539994 -1.2253172
0.31176114 -0.37739998 -0.68250585
1.0230949 -0.49010003 -1.1084995
0.9058876 -0.3739 -0.9790805
0.98935533 -0.39889997 -1.0527945
1.0881871 -0.32120001 -1.1361222
0.60723376 -0.39539999 -0.78568161
0.2614522 -0.34759998 -0.65454501
0.98057961 -0.7263 -1.1382691
0.48735902 -0.39639997 -0.71976417
1.184684 -0.68959999 -1.3421081
1.1391574 -0.37059999 -1.1706985
0.72562051 -0.27950001 -0.81569523
1.261393 -0.45450002 -1.3424335
0.94214404 -0.36729997 -0.97156209
1.2640636 -0.5808 -1.3854508
1.0714105 -0.76890004 -1.2157183
0.98590338 -0.72710001 -1.098286
0.96257901 -0.49629998 -0.99791092
0.95137215 -0.46160001 -0.97278303
0.94591653 -0.52710003 -0.98126453
0.5897029 -0.40570003 -0.73192066
1.2540804 -0.65249997 -1.3700838
1.099501 -0.4278 -1.0972971
0.95117855 -0.70190001 -1.0389549
1.2764888 -0.6171 -1.3823614
1.195056 -0.3804 -1.1951771
0.98239756 -0.76629996 -1.0899507
1.0576346 -0.77999997 -1.170032
0.38195106 -0.73329997 -0.71001214
1.2179564 -0.45709997 -1.2040892
1.1781284 -0.75940001 -1.2715986
0.9429599 -0.72420001 -1.007246
1.2870469 -0.55549997 -1.3242116
1.2695626 -0.59310001 -1.3128021
0.90867209 -0.3998 -0.88209045
0.90799809 -0.27780002 -0.86806035
0.98920405 -0.67809999 -1.0058551
0.76284897 -0.28299999 -0.75889701
1.320637 -0.5697 -1.3467873
0.42538145 -0.5388 -0.6370452
1.1651467 -0.45700002 -1.1062322
0.47408903 -0.50700003 -0.64644593
1.3045986 -0.44480002 -1.277652
0.31627625 -0.74870002 -0.65862715
1.1798018 -0.35149997 -1.1002866
0.99277902 -0.59549999 -0.97003156
0.8395133 -0.41479999 -0.81303203
1.2853059 -0.50840002 -1.2592218
1.1262926 -0.78890002 -1.1785843
0.25204211 -0.36330003 -0.55357707
0.60797167 -0.41299999 -0.6772626
0.87765002 -0.41229999 -0.83112937
1.0293206 -0.3154 -0.93037438
0.46360931 -0.3247 -0.60164559
1.2745328 -0.36430001 -1.1878669
1.2032934 -0.43940002 -1.1127553
1.2551941 -0.4497 -1.1725767
1.3360822 -0.56169999 -1.3162047
1.3596804 -0.40369999 -1.3033066
0.8960911 -0.27819997 -0.80716759
0.68016189 -0.29540002 -0.67557269
1.3258109 -0.70300001 -1.3542999
0.99650955 -0.59329998 -0.92814296
1.0716161 -0.7076 -1.027393
0.51661807 -0.33590001 -0.59068394
0.26554537 -0.36650002 -0.5127008
0.71829206 -0.42150003 -0.6873731
0.36858636 -0.7543 -0.62225819
1.3373204 -0.40969998 -1.2228007
1.2742095 -0.70639998 -1.2380738
0.5085541 -0.44739997 -0.58804351
0.63727057 -0.30379999 -0.62627572
0.34986797 -0.39590001 -0.52685839
1.0755091 -0.66229999 -0.98746222
1.3713337 -0.3757 -1.2475835
1.3794254 -0.69260001 -1.3663937
1.1725483 -0.79489994 -1.1356645
1.3537272 -0.58939999 -1.2754496
1.275642 -0.449 -1.1257155
1.3270693 -0.69489998 -1.2797863
0.47991949 -0.56910002 -0.58400983
0.41121021 -0.7902 -0.62297052
1.3509992 -0.36589998 -1.1947498
1.3156815 -0.76670003 -1.2862065
0.34250683 -0.3556 -0.49662083
1.1056238 -0.62760001 -0.97215921
1.3937629 -0.64459997 -1.3259692
0.78460574 -0.29030001 -0.66718167
0.39759821 -0.86619997 -0.63163853
0.55815983 -0.31910002 -0.55779797
1.4192038 -0.3897 -1.2744036
0.46050021 -0.63410002 -0.57205617
1.1052343 -0.74010003 -1.0031626
0.42085165 -0.40670002 -0.51358294
0.54282856 -0.81710005 -0.65856659
1.3139216 -0.4325 -1.1286066
1.091854 -0.59570003 -0.92759097
0.49358231 -0.33069998 -0.52437645
1.4583652 -0.4267 -1.3304553
1.353098 -0.40399998 -1.165571
1.4344881 -0.67199999 -1.3783367
1.3316346 -0.51929998 -1.159451
0.9863627 -0.28560001 -0.77779692
0.61764145 -0.31260002 -0.56310749
1.3346574 -0.63209999 -1.1929853
1.3631414 -0.65280002 -1.2393357
1.4075527 -0.42519999 -1.2212732
1.1868763 -0.77980006 -1.0699544
0.32211629 -0.3646 -0.45677465
1.1154257 -0.63150001 -0.93327039
1.3011702 -0.62690002 -1.1191486
0.6890341 -0.3053 -0.57457894
1.3096607 -0.38959998 -1.0640864
1.4361699 -0.37599999 -1.2254053
1.4747066 -0.39840001 -1.2867287
0.5179463 -0.509 -0.51922899
0.44853404 -0.7191 -0.5437482
0.4578518 -0.41439998 -0.48111469
0.93393493 -0.43000001 -0.71808571
1.3392675 -0.73110002 -1.1852686
1.1673406 -0.70270002 -0.97055179
0.45416176 -0.81299996 -0.5642367
0.99545121 -0.28649998 -0.73258823
1.2511526 -0.45730001 -0.9795422
0.49974406 -0.73610002 -0.55277789
0.88537049 -0.28789997 -0.65489256
1.3607906 -0.54979998 -1.121944
1.5195886 -0.54930001 -1.3621686
1.2248955 -0.51010001 -0.94993275
0.38362306 -0.81040001 -0.52834243
1.4004722 -0.37519997 -1.1260978
1.4566766 -0.69010001 -1.3089354
0.56844378 -0.3265 -0.4868052
1.384113 -0.63520002 -1.1664703
0.37900633 -0.71060002 -0.48772371
1.3458829 -0.79680002 -1.1863335
1.3351064 -0.72170001 -1.1311235
1.4644183 -0.73360002 -1.3266487
1.4573151 -0.4084 -1.1935939
1.3675092 -0.68470001 -1.1558255
0.47822213 -0.6857 -0.50034404
0.25206447 -0.39279997 -0.38126308
1.2991925 -0.78820002 -1.1021469
0.80739558 -0.43879998 -0.58976287
1.4478725 -0.5456 -1.1907103
1.5384763 -0.44660002 -1.301121
0.72076023 -0.3082 -0.52422315
1.3914644 -0.79190004 -1.2100084
1.3610138 -0.7475 -1.1437136
0.72675765 -0.43809998 -0.53685647
1.5298867 -0.40319997 -1.2686357
0.39587536 -0.90470004 -0.53141677
1.3592499 -0.51849997 -1.0408444
1.2531508 -0.69819999 -0.97512192
0.56165224 -0.74150002 -0.51150107
0.45455205 -0.92420006 -0.53841215
0.49842393 -0.70020002 -0.47445881
1.4970744 -0.38230002 -1.1736958
1.3044956 -0.53219998 -0.95401722
1.3827959 -0.61849999 -1.068554
0.1424427 -0.11520001 -0.31248254
1.2940578 -0.72570002 -1.0028467
1.4207742 -0.73150003 -1.1543524
0.36879861 -0.37029999 -0.35787848
1.445076 -0.40670002 -1.0769972
1.371706 -0.64840001 -1.0502503
0.34480807 -0.17039999 -0.34075242
0.019521087 -0.1277 -0.28918347
0.77926493 -0.30650002 -0.50224853
0.37570339 -0.90480006 -0.48054105
0.33218515 -0.04519999 -0.3386282
1.389434 -0.51539999 -1.0216949
0.38946602 -0.18110001 -0.34720522
0.075734794 -0.2044 -0.28883961
-0.011094749 -0.091199994 -0.28429276
0.30694434 -0.34259999 -0.32859269
0.25365412 -0.33789998 -0.31523603
0.54214847 -0.76199996 -0.47526371
1.0166008 -0.43959999 -0.64949852
0.75198311 -0.3107 -0.47844958
-0.050122917 -0.16549999 -0.27182621
-0.099235296 -0.13620001 -0.26702502
0.14529574 -0.37230003 -0.2922709
0.52700984 -0.086800009 -0.37856591
0.4514913 -0.021699995 -0.35651729
0.54549479 -0.1568 -0.37796664
0.20845473 -0.2802 -0.28939465
0.47790697 -0.35600001 -0.35873803
1.3691621 -0.7482 -1.0445216
0.31100392 -0.44349998 -0.31996658
0.56375438 -0.3398 -0.38210019
0.52813375 -0.91320002 -0.50406772
1.0947722 -0.29710001 -0.66917175
0.49389932 -0.8635 -0.47132552
0.25880268 -0.4558 -0.30619267
1.370744 -0.55159998 -0.96529251
-0.019115031 0.016200006 -0.26297623
0.13906673 0.042500004 -0.27979979
0.49593273 -0.2462 -0.3474974
0.83045495 -0.30440003 -0.49238777
0.46473974 -0.93490005 -0.48293847
-0.20023593 -0.084800005 -0.25012976
0.77699649 -0.44849998 -0.4776814
0.54920703 -0.39810002 -0.37131014
0.33855951 0.047499999 -0.31284335
1.4861836 -0.73879999 -1.1726892
1.3660693 -0.62199998 -0.96588987
0.64806509 -0.17230001 -0.39402169
0.35146049 -0.48280001 -0.31511813
-0.15813538 -0.23559999 -0.2365339
-0.11512265 0.023300007 -0.2431028
0.40649933 -0.48549998 -0.32258904
0.70343125 -0.44749999 -0.42267123
0.30432719 -0.49589998 -0.29563758
0.078209162 0.081 -0.25292367
0.55806863 -0.45829999 -0.36078909
0.66049027 -0.37760001 -0.39093238
-0.24637821 -0.022799999 -0.23366715
1.4056824 -0.71579999 -1.0193813
-0.084768921 0.049500003 -0.23738678
-0.0053482354 0.069199994 -0.2430643
0.31172845 -0.41909999 -0.28130504
